20890
0.12413639684032206 0.022709388694160365 -0.9920052613996762
-0.01226286051094086 -0.004265907846320579 -0.999915708588647
0.11289296345691538 0.025964460910184766 -0.9932678518766018
0.053645341104566514 0.014246107380138996 -0.9984584246739012
0.06467394770865742 -0.006702105433877643 -0.9978839422851392
0.11096713256415364 0.013228304978253547 -0.9937360350907539
-0.01947026270008228 0.002382225046927512 -0.9998075984279254
-0.040031859180439375 -0.03999799547188642 -0.9983975213354591
0.04476280831137595 -0.018732466665867472 -0.9988219989991667
0.1130292321802717 -0.013997961453652126 -0.9934930547054067
0.13333116813065712 -0.007130574287622249 -0.9910458892075802
0.0900940355581393 -0.02211937781404498 -0.9956876005464608
-0.08921661825230992 -0.030450287046829443 -0.9955466714556317
0.0721457757059597 -0.0227744652780162 -0.9971340485506881
0.11535933540875042 -0.002106224127599885 -0.9933215932184177
0.015014233468714819 -0.00565296910310493 -0.9998713000849991
-0.08976356171331096 -0.06282169223265206 -0.9939798478709548
0.05659774588348554 -0.04826081460458476 -0.9972299579006892
0.16068739839865862 -0.04382524285125481 -0.9860319001355379
-0.11709320007693624 -0.07032806429140331 -0.9906276524854164
0.10434439089282078 -0.03264752174887944 -0.994005225043039
-0.01058889253175134 -0.0649247672769945 -0.9978339791513311
-0.028470158731683896 -0.053315514521136156 -0.9981717817956683
0.17288717768810558 -0.044710370904395294 -0.9839263216951933
0.053892209196649624 -0.06293762255752808 -0.996561330503402
0.09416062768824002 -0.05428972361283149 -0.9940756521026954
0.055253692359615636 -0.041013187484723046 -0.9976296647218205
-0.021640558196228656 -0.06678023218333037 -0.997533000371665
-0.05177186738001549 -0.05841028891457662 -0.9969493025710495
0.048172579643214586 -0.03725508720046026 -0.998144008171268
-0.002341810517024742 -0.05257727870754288 -0.9986141125015268
-0.02774064255089174 -0.043163349458866615 -0.9986828235302516
0.0952767146747483 -0.04757847706017137 -0.9943131479375205
-0.05076041648497941 -0.04464097846051865 -0.9977126656309215
0.03205553393122082 0.16647964167644747 -0.985523704256608
0.04921170872293937 0.18070113047502698 -0.9823061178520757
-0.1296600367225506 0.16034527908880866 -0.9785078775109779
-0.06956684849356293 0.19289262269315732 -0.9787506780080558
0.002310259982262975 0.19794036809511206 -0.9802113411796387
-0.12422220037157362 0.15421783098525382 -0.9801967687872922
0.06939636499081797 0.19713937285324287 -0.9779162603194056
0.04605919133055161 0.18219061171810036 -0.9821838584988862
0.056214306527099245 0.16133617037405776 -0.9852972099172465
0.03893960743583237 0.18897892078292963 -0.9812087823050009
0.07532431954256705 0.19177547475636392 -0.9785440277102613
0.026687292042492816 0.19545756077304138 -0.9803489839746311
-0.05350699120910801 0.16619882205535724 -0.9846395043055911
-0.08269594904343566 0.1618335043507501 -0.983346987020025
0.0680495459120091 0.1928880092844879 -0.9788582508082755
0.0501489601720647 0.1947160777353138 -0.9795768121311549
-0.10481895929874495 0.1517305479516652 -0.9828483232878894
-0.10313496904932588 0.1396476510912768 -0.9848155724316526
-0.025542229347320936 0.16426222165703394 -0.9860859582492109
-0.14636339789555483 0.1572843488528392 -0.9766470136965586
0.016619626132962056 0.15085108472349906 -0.9884167836823413
-0.17032907865053734 0.1314774057394684 -0.9765765186333728
-0.0022185349205740283 0.19186716691636985 -0.9814183961809011
0.17342507235319737 0.18963336359525043 -0.9664175762530604
0.06663018993785547 0.16592690784854183 -0.9838844846020629
-0.0019390598633641511 0.16926736083541355 -0.985568262781762
-0.13003351532923182 0.13270656972313455 -0.9825885462610692
-0.12563520984282933 0.16330451990078218 -0.9785435237268312
-0.18313640144579996 0.1274692181612362 -0.9747885190577729
-0.0825351993542151 0.15529795206701322 -0.9844137783225871
0.16204565280125105 0.19740274610212766 -0.9668367815921959
0.00475918271134429 0.18634449497273448 -0.9824729407842623
-0.06817784135080333 0.15610206533595675 -0.9853851669000268
0.013201027643194196 0.17777571240857734 -0.9839824840650297
-0.04787681409772766 0.16348636254766657 -0.9853831843160227
-0.1364123670826222 0.16658193008550978 -0.9765460187189862
0.15819480148585546 0.1915002220474703 -0.9686599350332501
0.0477957687161646 0.16231772755842933 -0.9855802959744572
-0.0035849685678965297 0.1795918307961679 -0.9837346808523363
0.010168959364080299 0.16520908507654633 -0.9862061399492614
-0.058360303845511344 0.15098607939024358 -0.9868116734035035
-0.031932753903166786 0.14709753589657232 -0.9886064000204108
0.04861177221272224 0.13206702360945075 -0.9900480780635248
0.05684787516924536 0.1264169123234167 -0.9903469510062398
-0.06531655044455557 0.12037874924017776 -0.9905769556018322
0.08617228583032294 0.14416019623205115 -0.9857951993071957
-0.08442469992066005 0.12854913862363843 -0.9881030255000878
0.04625122543296628 0.13876692685502065 -0.9892444410544657
-0.06891875641519721 0.14898962657231327 -0.9864341317026826
-0.09069675823039504 0.12300875155960765 -0.9882524703162873
-0.17304362943110166 0.11220211523954265 -0.9785022164763266
-0.008995817196176203 0.10464165305045527 -0.9944693055694787
-0.07539417577931008 0.09762445648940961 -0.9923634333013818
-0.04823271598950399 0.09056674216355529 -0.994721704961823
0.1576828741059927 0.12933252486984273 -0.9789837635142196
-0.04895908939828377 0.16934006642651372 -0.9843408705666725
0.05603255284044234 0.15079979100448088 -0.9869750635427361
0.010261171905218011 0.16665048816206335 -0.9859626378045354
0.022367725001685494 0.1724023565075604 -0.9847726196177924
0.005404265072210063 0.18722173192710975 -0.9823028132980394
0.050035788871757324 0.1599974600107299 -0.9858484836028789
0.03365278601049765 0.15114150456594994 -0.9879391355702398
0.13825861794654662 0.19028808517706974 -0.9719439280139339
0.03181182244140836 0.1622802401265695 -0.9862317839217206
-0.08347444558667068 0.12826083830473994 -0.9882212172845528
-0.08278379529393631 0.1625789129424189 -0.9832166293870304
-0.1386199728507294 0.11770987112076405 -0.9833254239404147
-0.10540940854317499 0.14552531801528526 -0.9837231513017919
0.07748216097235594 0.1564002728154622 -0.9846499222537434
0.08193231253365453 0.16508622555233426 -0.9828701004180417
0.031338499609543824 0.14177088139997324 -0.9894033129261784
-0.006830100217247448 0.12904984123469507 -0.9916145865245845
-0.012995983258811954 0.137255308160339 -0.9904504454039824
0.10389432066165866 0.15264092562580636 -0.982805534151263
0.13850826235605768 0.1714890631768556 -0.9754009239640027
0.08133515676705882 0.1599156378415229 -0.9837741514430114
0.044362604364077546 0.1289567108419597 -0.9906574211415669
0.1406990506689316 0.15486055816374208 -0.9778660361552985
-0.11345154415639089 0.13483860010815232 -0.9843512071661233
-0.06406007693025495 0.1668716742894578 -0.9838953963016206
0.05910187659181436 0.18721395701831864 -0.9805395976098412
-0.016241870534164253 0.16840444301906854 -0.9855841644491803
-0.008752503966102387 0.14073681027861948 -0.9900083554732876
0.12416181950424468 0.18765223802207237 -0.9743564440915362
0.04294268008900792 0.1822323597503964 -0.982317307842316
0.026970191784669556 0.15944747048135588 -0.9868379364982861
0.050626393557153 0.18583145294127515 -0.9812765356275116
0.06538300211388517 0.15345537455984776 -0.9859901171174449
0.008704153633826331 0.1504460729747516 -0.9885798990653182
-0.05774772045312833 0.14327223533967579 -0.9879970988637771
0.02146940997148948 0.15791828564626914 -0.9872187596951446
-0.04634085917352286 0.15845326679088767 -0.9862784023866464
0.020884301394393942 0.1685849833390102 -0.9854658539735682
-0.04279312014360076 0.13939628694652678 -0.9893115909832944
0.10102198999656177 0.14835834247222682 -0.9837603162132675
-0.025139919924714343 0.154846643143425 -0.9876186012491825
-0.009031229765924603 0.14607885349707114 -0.9892317248500961
-0.05173442094207596 0.14713813743159615 -0.9877620757059612
0.01722710024480071 0.1596259143512153 -0.9870272511358004
-0.07827554270678909 0.144640697949361 -0.9863832966502826
-0.1249443422758293 0.12803548650120547 -0.9838677886431998
-0.125340784043515 0.13485867049399364 -0.9829052990232322
0.016750681610019264 0.15285165113544755 -0.9881071740508554
0.002292748676195361 0.17042408768091308 -0.9853681411744731
-0.0746713869278694 0.16396798376024774 -0.983635442771288
0.04467735129025963 0.14106546396265954 -0.9889916426131651
-0.06754323784946901 0.13595946231597286 -0.9884092955995314
0.11848009193312861 0.13217003687924675 -0.9841206984749666
-0.08235333035936428 0.13713687090574997 -0.9871227925728902
0.019691722912514913 0.126599902622928 -0.9917583882703499
-0.11714267059770578 0.0821852994646286 -0.9897086294850352
0.08229717159206636 0.14512934381910267 -0.9859841018548843
0.1405327140480882 0.13804853866776354 -0.9804045885520801
-0.09690825912711847 0.09549752631863387 -0.990701272725524
-0.03204828714595962 0.1109909812688196 -0.9933045400923096
-0.00010796767360586601 0.12696152204629843 -0.9919076369615615
0.005694447559285194 0.09353903341376951 -0.9955993282917643
0.11556802475822497 0.11785705399484117 -0.9862827923456535
0.128130756355955 0.1486430447065009 -0.9805548197505493
-0.1379456716034911 0.1197322847457878 -0.983176063416627
-0.042647139256987154 0.10899165382644574 -0.9931274041679504
0.025173047494622416 0.1301857763959454 -0.9911700062572608
0.04347140598310365 0.1458956182096503 -0.9883444265280582
-0.03396264913426785 0.1191690039180211 -0.9922929441293884
0.19528211155349118 0.13937293298839004 -0.9707935323524893
-0.05119366498714535 0.1311330932482491 -0.99004208017656
-0.09825311543655442 0.13346848525605526 -0.9861706184786004
-0.12948506035855675 0.1086607591770767 -0.9856096887505735
0.015396722028630988 0.13266695743412127 -0.9910410785411199
0.05174616812357852 0.14057149417650092 -0.9887173454074285
-0.03545777616989865 0.10987384741885427 -0.9933128831151158
0.090324558746409 0.10888640310005665 -0.9899420312862761
0.06581344200462658 0.10599586219186263 -0.9921862063391667
-0.1150894966969805 0.09491348539169661 -0.9888103144895061
0.015078267174195678 0.10626150225816623 -0.9942238877621384
0.05646942767087372 0.12939946225411064 -0.9899833245600004
-0.0480761006423666 0.09588873274013411 -0.9942303754565721
-0.11067051532338912 0.09916345371715554 -0.9888976926279792
-0.1287919897304748 0.10174572091228791 -0.9864382553699467
0.004239889940536104 0.12099686307437585 -0.9926438346453641
0.06753308036856791 0.12174124146092706 -0.9902617599319308
-0.026312758718891428 0.13304835717573987 -0.9907601997362623
-0.011914722540766117 0.08782895420617433 -0.9960643122759827
0.14684962143049993 0.1168655659785311 -0.9822309444189979
0.06492673446859863 0.13565675667209823 -0.9886262000981217
0.03148757173080216 0.18687261464548743 -0.9818794013126341
-0.14716661269841821 0.1574885977305944 -0.9764933843563534
0.07603841573840299 0.16297300327992092 -0.9836960707118417
-0.04821898845877526 0.14681563824799607 -0.9879879035280978
0.1785301678327411 0.18795969997152498 -0.9658147495043901
0.1010510961565376 0.18599345275203263 -0.9773408369135814
-0.04346499121529454 0.1754745656040303 -0.9835240065014842
0.031620258346418254 0.16400875061482312 -0.9859519709315818
0.029023094005941746 0.18346947487114953 -0.98259687146094
-0.14688841504412412 0.1614169633996907 -0.9758936199466867
0.11212824412182656 0.17558192029971154 -0.9780584062999622
0.18494208176368343 0.1760465416808258 -0.966852647281444
0.07092353116455258 0.15353072957470737 -0.9855953367398859
-0.07473991572717142 0.15544009554830782 -0.9850138687820736
-0.14661118466062004 0.14416767498321528 -0.9786321280350159
-0.0671293385428929 0.12712677478265888 -0.9896122650008704
0.05349993204462764 0.13908188778115618 -0.9888346604779032
-0.060298183684474725 0.15003553605172168 -0.9868401425590804
-0.13335449313838466 0.13581305452114295 -0.9817185917468618
-0.05056672653876407 0.1715370878155886 -0.9838790747195008
0.000572800452939254 0.15378881290597557 -0.988103573986357
-0.08658929828897431 0.1358152181893299 -0.9869430175699141
-0.16086782376169995 0.15641752893068317 -0.9745024884121096
-0.11888137490867268 0.1594475612924365 -0.9800222925514085
-0.05364227160484497 0.14333952374756384 -0.9882187448277299
-0.009479772221089922 0.15208662874822293 -0.9883217043425874
-0.02746040605005047 0.15066801891555923 -0.9882029519160662
-0.17221293133291615 0.09877152869292087 -0.9800953481174104
-0.13490346673648007 0.1650992905989228 -0.9770073074988804
-0.05941122947613344 0.15686416446872048 -0.9858315980519515
-0.047635972586109465 0.1205273643923529 -0.9915664216523311
0.03484653943480064 0.14080711131782997 -0.9894236080121331
-0.019788026353010774 0.10980293822328176 -0.9937563830087265
-0.019907855416398338 0.12933659072042622 -0.991400889445605
-0.04034695345369263 0.13629979984681012 -0.9898456889377886
0.0616395960053484 0.1349232021901862 -0.9889369493122621
-0.15711473753128857 0.12197863770504193 -0.9800184545171058
0.179276548168169 0.1538667814953499 -0.9716917890098529
-0.05967949010951663 0.13204264042295316 -0.989445854794694
-0.047893004136158185 0.10436347830962274 -0.9933853857138885
-0.1207713878882971 0.09271056853861584 -0.9883415514632485
0.07350889798681513 0.11049597596370209 -0.9911544184498161
0.058137202563024654 0.12334193941120478 -0.9906597961260104
0.03926070580751915 0.11712977898696188 -0.9923402701966503
-0.025983176543426977 0.11447268197935395 -0.9930865418568348
0.05312554466291885 0.12705549819883263 -0.9904718960584974
-0.07597978094171585 0.09201922525401529 -0.9928542365683393
0.011412806047761044 0.09287825695243358 -0.9956120616201845
-0.04269733224978272 0.11589200118841597 -0.992343681331874
0.04095731443241901 0.13612625457554642 -0.9898445035507939
-0.10582976354625073 0.11177222552129361 -0.9880825019955377
-0.10629164133092395 0.09878574644771132 -0.9894157181296176
0.010123078293081652 0.14955375393445172 -0.9887017740299578
-0.06592955286417893 0.12294095335071573 -0.9902215994656685
0.07481271213731638 0.15886101128481167 -0.9844624102505012
0.05240270259378803 0.11830518028734989 -0.9915935866462856
0.08955484808557426 0.1306132016305203 -0.9873804336445983
-0.06155772833888844 0.13011004520903982 -0.989586793675753
-0.08450962485685308 0.11707067455754396 -0.9895213895945836
-0.017447614881284948 0.12229528726417464 -0.9923403868874467
-0.05321039602039718 0.211042746915285 -0.9760274651513674
-0.10315407757466288 0.1687709296986767 -0.9802426279081954
-0.07604250639967497 0.1811803353166991 -0.9805055957591389
-0.010799563580412258 0.18817273171512483 -0.9820765715896802
-0.07804699702089221 0.18995520062343774 -0.9786856941899837
-0.06867123393529878 0.19832747114217375 -0.9777271990796583
0.06653918081234068 0.20332210064170425 -0.9768483305034961
-0.09618330656189016 0.1640089936322336 -0.981758535255265
-0.18140778864074286 0.1428005485468831 -0.9729846954372844
-0.22648730431170466 0.13507697289498216 -0.9646023597209088
-0.15581521845110174 0.14444210900099202 -0.9771684065944729
-0.05750240778429403 0.17005043481943263 -0.9837562313483614
-0.16219893555156234 0.16376499626179103 -0.9730737542988793
-0.029515725371074095 0.18385186006973897 -0.9825107203001484
-0.06263514781249313 0.17230679487190947 -0.9830499512738287
-0.085834012233365 0.18548965652567997 -0.9788902439323358
-0.17520185125610466 0.1454358062064603 -0.9737313477492191
0.05961118363512573 0.1873347707918837 -0.9804856910929256
-0.18370965153139288 0.14507694081123337 -0.9722157400387366
-0.16437983815501767 0.12988756909886548 -0.9778080017067348
-0.15499288611365233 0.16315417400516433 -0.9743499991065084
-0.07466094940177305 0.14605992024700332 -0.9864543792451149
-0.12001150474183969 0.14656338695922388 -0.9818942979428287
0.052866889262176496 0.16047171895163267 -0.9856236195609606
-0.1853632118018086 0.14798819815057135 -0.9714628005840806
-0.013843905901650272 0.169157547520327 -0.985491791130852
-0.18824703584132135 0.14036114729435656 -0.972040020692136
-0.1040579236368363 0.13873817382749637 -0.9848470275384913
-0.055200148547124836 0.15810184738358304 -0.9858786687286999
-0.16395476859018632 0.16258979658541292 -0.9729765628743853
-0.09062594402303613 0.1669331275401202 -0.981794412898957
-0.07866785748372049 0.15034855350121848 -0.9854981890693724
-0.045215414014606166 0.15488786094866408 -0.9868968116607912
-0.21008884345945034 0.15469989072215493 -0.9653655378479306
-0.035718547732274286 0.19422021644624696 -0.9803074481362826
-0.009107948378427794 0.1856250299272094 -0.982578441418729
-0.043228790998714045 0.16506593474700038 -0.9853347191766302
-0.18446633952622132 0.18817468301050747 -0.9646566530407035
0.12771174064814572 0.18522413321338096 -0.9743622179538638
-0.02656715493697842 0.17803507535390695 -0.9836654401890327
-0.0620310139897204 0.14725934199751295 -0.9871508696738643
-0.015751232595355134 0.16358895516120806 -0.9864028347592029
-0.08078057782704959 0.1665407063810993 -0.9827200472993377
0.009462990727846177 0.1568322125680425 -0.9875799253262985
-0.12235261028074366 0.15519860161779803 -0.9802771204171647
-0.05116648944148652 0.15725400000011835 -0.9862318033009264
-0.17831496908540967 0.1620998865381393 -0.9705294424098591
-0.006685029215266633 0.1692140319206481 -0.9855566557968898
-0.17450353826796466 0.14583559881692493 -0.973796946621661
-0.1955028049610967 0.12343565459023646 -0.9729040509876723
-0.21326640077783196 0.12151015218808635 -0.9694084408620018
-0.20374810086984332 0.08771518987740694 -0.9750860253622256
-0.20234316353058873 0.10154873079893802 -0.974035471348738
-0.10111337090581024 0.1196984490512921 -0.9876478965293144
-0.07559096661256477 0.11432945412598769 -0.9905628610471079
-0.10160346547985327 0.11772595925664078 -0.9878346695270359
-0.09312740894855695 0.13100272840481594 -0.9869982628419477
-0.02555706929003713 0.1435486125978698 -0.9893132122995887
-0.07922478840740955 0.11816467818809892 -0.9898285415820783
-0.06270235973235369 0.14260777826421914 -0.9877911903142982
0.009490853698172846 0.14097263164697768 -0.9899679998982823
-0.14760585048073793 0.1213829444461571 -0.9815695052829623
-0.17334412580195907 0.0921901877370226 -0.9805369872345291
0.14804248825774802 0.14006113799099315 -0.9790129209030505
-0.09347861593489631 0.10910155938180334 -0.9896254837580503
-0.017647070867561176 0.09883659366406194 -0.9949471888711885
-0.0811996835821012 0.1353848122579112 -0.9874601581816134
-0.08168653319646692 0.10793880985767533 -0.9907959041199409
-0.16004304678292802 0.09071209392238744 -0.9829331305804345
0.020962072804302262 0.12731812871530224 -0.9916404013573575
-0.08448030743168664 0.1363050611935147 -0.9870582596530358
-0.1346663316146203 0.10860522265473968 -0.9849212581427897
-0.06801285016958938 0.11634264134813944 -0.990877712947439
0.13438396635003821 0.13139755042103823 -0.9821790230560733
-0.07156433634056134 0.09247037207062181 -0.9931403607009716
-0.1036116940802074 0.1268049869567985 -0.9865014506490681
0.015601260562263825 0.13876759142535358 -0.9902020784864444
0.1314651672666568 0.14941169980498303 -0.9799964559920284
-0.21372527303126224 0.12558162944908863 -0.9687882957657077
-0.11785437828106232 0.12242459903004435 -0.9854555104479944
-0.08700875204371966 0.1347938906200609 -0.9870461408258996
-0.10465029941923698 0.14404599850366784 -0.9840218824531015
-0.1313487941101271 0.11787932321144784 -0.9843027783385693
-0.031114594111882526 0.14509180485103806 -0.9889288398051304
0.026196536007383718 0.14112903606633356 -0.9896445506747367
-0.036029386993460755 0.1347155331830394 -0.990229068646283
-0.1593663034198658 0.09727864670010923 -0.9824150071280888
-0.13392508762693095 0.1053301399386537 -0.9853779135563282
-0.10488719193065174 0.12436512555533986 -0.9866772484021852
-0.10776434224664172 0.11250078254089277 -0.9877906764430587
0.04679770802097523 0.135721840104901 -0.9896411251774672
-0.01971922570113996 0.11216356549386369 -0.9934940798582804
0.11930245885153168 0.13326161171237746 -0.9838741109287297
-0.00044029790155952764 0.1839065205589915 -0.9829436391948642
-0.19615106151469536 0.1871078087430218 -0.9625567146792147
-0.23940984041306182 0.1316367414936873 -0.9619535833928352
-0.08341094855996689 0.18174278503273963 -0.9798021094837824
-0.2343520110017021 0.16433220853833047 -0.9581618131486835
-0.12818773441227138 0.19552093856768377 -0.9722856922365263
-0.1420306249040301 0.16364485170183327 -0.9762416012959374
-0.06437465790465688 0.13966292329099075 -0.9881043321823224
-0.12981747037976127 0.13871696610986903 -0.981786650804274
-0.13314221596428305 0.18050914339469232 -0.974520189364507
-0.06623313031580932 0.17413454428143238 -0.9824918996798229
-0.1336897194961469 0.1710602196337655 -0.9761482777528676
-0.11148623923304618 0.17572048370419674 -0.9781069113693223
-0.06932208655526609 0.2021612099743594 -0.9768957434124316
-0.14600626570202016 0.15810776014539776 -0.9765675125446046
-0.11596587840708548 0.15187419287179718 -0.9815733006682757
0.005650196994914897 0.20001402572012258 -0.9797767423189576
-0.08842759628510281 0.1917203891140669 -0.9774578520904058
-0.08840268866767015 0.15292973890892603 -0.9842750934538448
-0.16237369935832288 0.15538867051161667 -0.974417335043525
-0.06706733194170209 0.163271563030813 -0.9842989229353535
0.0059300924637091254 0.16993205239773246 -0.985437938974985
-0.06854001144073157 0.16538417801469316 -0.9838446729510248
-0.13762046457287583 0.16536599815494624 -0.9765831733062802
-0.09083883485611216 0.15256092190298257 -0.9841104974493953
-0.20608824031694 0.15029227103878567 -0.9669228875505387
-0.19107783408676549 0.1552284800995623 -0.9692230807645319
-0.09180982937596596 0.14619662067243255 -0.9849860422025873
-0.002707661005650897 0.18612499110150205 -0.982522343898267
-0.013220747105371966 0.16499903427241636 -0.9862051158532621
-0.00004946336906425097 0.1730071517655757 -0.9849205668435086
-0.12716087177597146 0.17249647023368203 -0.9767676696359762
0.03208399896859074 0.20290059886091255 -0.9786735737681215
-0.25034767648896555 0.1506066606460314 -0.9563700511024106
-0.02119259897897907 0.1983324524026216 -0.9799056648843695
-0.0026864958113128057 0.17639727541777775 -0.98431538846319
0.03368195572116283 0.19177009319125704 -0.9808617421513668
-0.19281597199271805 0.174477663793711 -0.9655980249470233
-0.07154620790702873 0.16390121880522912 -0.9838788190668019
-0.08480003319688113 0.1749400786883196 -0.9809204469468115
-0.1452486092475582 0.14859695618767407 -0.9781726770480808
-0.11893270451677242 0.17967654168290156 -0.9765097808855777
-0.10113701103121313 0.14368905955616415 -0.9844413436886615
-0.09445789545012787 0.15273486720769663 -0.983742733811122
-0.11958050827727942 0.16853227346419908 -0.9784157474413093
-0.053257890934359564 0.16631051136833194 -0.9846341507695271
-0.22317353322720232 0.13812266336643056 -0.9649433682509304
-0.29965695674002857 0.14603861564925627 -0.9428034954414167
-0.05454895248897895 0.17306379700648095 -0.9833988681852622
-0.09856354384497562 0.1602795380679115 -0.9821383291071868
-0.20413586111955967 0.11288402408924192 -0.972412333997464
-0.1884812688639432 0.12613881940029256 -0.9739424056522739
-0.03068544336474771 0.13511330661392507 -0.990354884847528
-0.20656812470351493 0.1073101902344633 -0.9725297594049842
-0.15921610568949462 0.11642740452490327 -0.9803544722010842
-0.06539494517202768 0.1506034491134295 -0.9864289646300367
-0.21396188378699066 0.09773396840615924 -0.9719405247780886
-0.24006846720585107 0.06757615756326762 -0.9684010501762261
-0.22747776073962703 0.10783566808086914 -0.9677940571518497
-0.0294508093360729 0.12233013892340902 -0.9920524113878408
-0.19215284469592495 0.11657011584592047 -0.9744171038969567
-0.23978558668493496 0.11062326339568088 -0.9645026521549079
-0.06464586457844562 0.13478559234325793 -0.9887637515046668
-0.15277058549877073 0.13059784272352334 -0.9795944832849585
-0.09701523857053032 0.13055150573917346 -0.9866835094569777
-0.1288654867479465 0.12624272092498534 -0.9835936466542834
-0.0926824384319789 0.11975177752399924 -0.9884682480414559
-0.10979782431208329 0.13794170412620987 -0.9843355749128903
-0.23044582343262254 0.10074550097863365 -0.9678559120525249
-0.08182472442552387 0.1085026818536107 -0.9907229090433214
-0.12746152963483365 0.10829071129525897 -0.9859141343495972
-0.07134807236901465 0.14130567507869035 -0.9873915934216686
-0.165161133822773 0.11541510136527425 -0.9794902522492093
-0.11031609606331733 0.11938605115120979 -0.9867002228335968
-0.15958466823591266 0.09593845835532674 -0.9825113464344507
-0.05586629343218233 0.12927289510269596 -0.9900340781255546
-0.07232304384918438 0.14575829593981238 -0.9866731457241101
-0.25075004219147295 0.10703515044686576 -0.9621163614188211
0.01641198335389324 0.14525148345673158 -0.9892586382519036
-0.036491505399914984 0.15077337326339063 -0.9878946097375095
0.037086141026212965 0.14953848323075955 -0.9880601500803622
-0.08606404348968182 0.13036671006283101 -0.9877233931246137
-0.09579824912251005 0.14387384554166233 -0.9849482280983684
-0.20665983525504122 0.14667018579181323 -0.9673570018830454
-0.05122882551523661 0.13555829393735033 -0.989444064301325
-0.11816460649404244 0.13959794737997824 -0.9831325133772176
-0.18952658759246557 0.11142031504510348 -0.9755332828718893
-0.16289627647824556 0.10106221008370238 -0.9814536325280583
-0.05348095242883605 0.12649154820999173 -0.9905249496901853
-0.04251983113793743 0.1170703636518579 -0.9922129781021931
-0.0655579424691389 0.09375491814304279 -0.9934345330736215
-0.23706558108856246 0.12104663552198852 -0.9639230375356473
-0.06892637004798563 0.13629731560616656 -0.9882672701605377
-0.14211450209414347 0.1329267635688335 -0.9808842662728612
-0.088564570486543 0.11613169689043085 -0.9892773856870899
-0.27557678578166245 0.09675831484412266 -0.9563970219771565
-0.018086768128454375 0.12125615996738906 -0.992456453698917
-0.21979182396013455 0.11342970731491155 -0.9689299539279044
-0.0886297825022227 0.13661963319258796 -0.9866508184154774
0.005676693489629098 0.17254503476811509 -0.9849852720360314
-0.041027008685812064 0.13425384735629214 -0.9900973129083462
-0.14790176547715922 0.13023693982114082 -0.9803894161376713
0.015331948468185017 0.14201920410597754 -0.9897451576144607
-0.14771249983820595 0.10817876389924297 -0.9830963190007274
-0.003136891984014262 0.1368052778063302 -0.9905929920370997
-0.09293539077657403 0.10236459183729218 -0.9903961346245199
-0.1701795538321299 0.10562732281393905 -0.9797355705151555
-0.19000965752006174 0.020495697176583956 -0.9815682637730065
-0.1845472973279302 -0.02618405795523568 -0.9824747783826074
0.13974432389226787 -0.0023550663049205405 -0.9901848199213076
-0.04490713055582676 -0.023693678466406985 -0.9987101477535776
0.018401181470850278 -0.004599792350014925 -0.9998201030339476
-0.08792569991407181 -0.030327166418876002 -0.9956652722032754
-0.12640705854889916 -0.01639413494583452 -0.9918429754191905
-0.09538666423344908 -0.026970353327485437 -0.9950748636800177
-0.012490115576947888 -0.022950456898281166 -0.9996585784861924
0.08095593007625966 0.009053190201689112 -0.9966765659594189
-0.0724844759992202 -0.017583338284703723 -0.9972145340667093
-0.05395429501443523 0.01393878965237337 -0.9984461148166797
-0.014766405721277244 -0.0009510338217157082 -0.9998905184052626
0.2270873335310991 0.00591209230028665 -0.9738564525197584
-0.05028736437043484 -0.0017381418580413896 -0.9987332776309982
-0.12564524247396758 -0.030401391036352123 -0.9916093124142759
-0.16235569102331632 -0.049569567633398114 -0.9854864218024415
0.028838975778899684 0.005032858647982522 -0.9995714000559708
0.1495009552677707 -0.0027849744255029974 -0.9887576590304995
0.047880667740017535 0.009431739108530682 -0.9988085321792955
-0.1344234239722403 -0.04493934287742246 -0.9899044390997168
-0.10171063423358406 -0.029960119313735382 -0.9943627799422647
0.2260042752750965 -0.01716439091997426 -0.9739750773206288
-0.10654194304383595 -0.04666513760236934 -0.9932125549473265
-0.17068194583925286 -0.08492881087303766 -0.9816591926163674
0.24898459331941117 -0.004415400993021205 -0.9684973807520795
-0.01800224937329453 -0.039287137774185805 -0.9990657835313017
0.24689570076106399 -0.00993968128796428 -0.9689910813220093
0.08203211031586688 -0.026576291772092864 -0.9962752800269462
0.09002458932671357 -0.02908931062148595 -0.9955146334053174
0.1665146700208597 -0.016028654050355483 -0.9859086909634067
0.1023891358125667 -0.03899499059707342 -0.9939798064225903
-0.06376909015655437 -0.04075503906677315 -0.9971321526915432
0.0017277600863086079 -0.04335482053032454 -0.9990582437385058
0.08271228897997444 -0.0024009529482132428 -0.9965705758633624
0.23658857990572962 0.00024231824634921538 -0.9716098934963856
-0.09425742563747952 -0.012633061528310032 -0.9954677008665912
0.0193235240850613 -0.03652970428546638 -0.999145726168986
0.11501142158095433 -0.0341690183991501 -0.9927763348748633
-0.04413070788098338 -0.04481240403855161 -0.9980202047384658
-0.08190921882768366 -0.036476488651255655 -0.9959720606757569
-0.12837646535439906 -0.07253016297574652 -0.9890696935008284
0.0369059350418824 -0.03420420919779192 -0.9987332096370072
0.2370405014985447 -0.02172573539389581 -0.9712568110808351
0.11406138929908068 -0.04815705217187583 -0.9923058489182048
-0.020667626628087646 -0.03326344119187229 -0.9992329021252437
-0.02515190521616209 -0.02870216997840344 -0.9992715182084038
-0.17194090735077117 -0.04113083634450822 -0.9842482302148148
0.05357898210054318 -0.013290598525649 -0.9984751637711875
-0.021492009041782487 -0.005847411544609831 -0.9997519198909177
-0.0354890659682781 -0.03763721355644053 -0.9986610868319673
0.2317244339035239 -0.010833160996455291 -0.9727211467604251
-0.035975256564320296 -0.04955560363200109 -0.9981232504374394
-0.03316898124465811 -0.05311311404527346 -0.9980374821616699
0.055548342116593076 -0.028920335863652488 -0.9980370713864448
-0.028270986122952094 -0.011846014315859323 -0.9995301012418107
0.014373341519095669 -0.04617700061102022 -0.9988298612216925
-0.027450302094287924 -0.025521448507176987 -0.9992973214119149
0.037516547719783584 -0.021104134838244158 -0.9990731325283042
0.03505547675953 -0.06507106077155499 -0.997264694351117
0.22522457499763182 -0.032958537391814584 -0.9737492621974759
0.09698180688611913 -0.049229707572977455 -0.994067887533534
0.06363256312263581 -0.030328478254040874 -0.9975124461966568
-0.04356187118554311 -0.05573032991478633 -0.997495109615282
0.21919047903480363 -0.042954426417932186 -0.9747360930793524
0.04171450394274098 -0.05107246769960582 -0.9978233827706604
0.061749367114625454 -0.0348796313145429 -0.9974820434375272
-0.16003933887163047 -0.004870416076523772 -0.987098621750012
-0.14730605423077478 0.03429475124779973 -0.9884962298480514
0.017213377197063506 -0.006518011409258562 -0.9998305932370446
-0.10257468980486283 -0.011941445719617954 -0.9946536255830779
0.012211340630186961 -0.000672264686472861 -0.9999252128135409
-0.18245242479081858 -0.052015363305880746 -0.9818378250343118
0.10525648851916158 0.0005746089231641626 -0.9944449413865009
-0.012890464024114008 -0.01784127773082014 -0.9997577330264442
-0.04180710516273048 -0.004412312577124489 -0.9991159579626552
0.1330724570727629 0.003234317039109413 -0.9911010343864587
0.20521526679042124 0.015141110276850896 -0.9785997348536942
0.0780874607228583 -0.00532082460896984 -0.9969323133008262
-0.00392075452080877 -0.021659324850834015 -0.9997577213160165
-0.14523911383927884 -0.010031317709036942 -0.9893457294981374
0.11830692358032752 0.0032873467650461076 -0.992971633625153
0.03982284240549552 0.038344866871393615 -0.9984707368808373
-0.006029041129339607 0.03061834886511563 -0.999512965086414
0.06599459784320444 0.010442673077956006 -0.9977653349533149
-0.18748300725158087 0.00503032959819336 -0.9822549657680725
-0.10536555733425196 0.009769239691952212 -0.9943855697281029
0.012619530924564845 0.023363887527765175 -0.9996473759275488
-0.04982535269555169 0.01343818244584003 -0.9986675370118508
0.18953791970875739 0.016738511447481254 -0.9817307162491145
0.07041433150608918 -0.015604056071828354 -0.9973957766867965
-0.06991222737474627 0.007852788693674784 -0.9975222374329479
0.07597713471292197 0.002559788900181013 -0.9971062744169255
-0.1866075076934054 -0.00820823973454436 -0.9824002559409866
-0.08410066045444392 -0.0047003252314358444 -0.9964461781018807
0.10112721599688995 -0.0014881106655105416 -0.9948723896617926
0.18996781863657627 0.00182004474279285 -0.981788630673423
0.09887498137646604 0.012921557435593702 -0.9950159654052001
-0.11179012292633733 0.0009560120663123367 -0.993731379426575
-0.20084536875014616 -0.011194666799745323 -0.9795589912235304
0.033442956821774235 -0.0053919144980108325 -0.9994260832583185
0.03906309176297121 0.01447330475946396 -0.9991319223762483
0.052066241730441554 -0.004822143790244195 -0.9986319909763224
0.047342431357480536 0.0062115441462899925 -0.9988594049777381
-0.1330198185280701 -0.0475260397816301 -0.9899732336893934
-0.20013049373151057 -0.04422657998355271 -0.9787705528374565
-0.13845450740106263 -0.055175310601874215 -0.9888306399380613
-0.14167518536282828 -0.05573519008195113 -0.9883429214796537
-0.12257993612221074 -0.022577165077006318 -0.992201809551545
0.00224829432476803 -0.029235927129326066 -0.999570010423241
-0.13521743220986696 -0.012661276365364772 -0.9907350493988643
0.040062927836879064 -0.02344481796583011 -0.9989220701955114
0.010646082234930007 -0.01784905376108323 -0.9997840127812012
0.034612616658425056 -0.02362187951732068 -0.9991216009956577
0.06245173497181383 -0.04126495006618325 -0.9971945570925695
0.011707594591050474 -0.026900382856872913 -0.9995695581754405
-0.04416106560074471 -0.022080576990394386 -0.9987803804664859
-0.16540694007357415 -0.04217164671376853 -0.9853233461097662
0.21672599061015613 -0.010802983802841785 -0.9761727001586359
0.1328912064830194 -0.019513668716744717 -0.990938516746978
0.04246068140228159 -0.03143710916526629 -0.9986034241390248
-0.003989044137036012 -0.015437148952695406 -0.9998728829001641
0.02004473960119671 -0.02613433235697995 -0.9994574553659477
0.11792870252629023 -0.014138005297483986 -0.9929214157861005
-0.06628572767309826 -0.06826197522984066 -0.9954629601570159
-0.12804275979132754 -0.06278611343422313 -0.9897792459052904
0.203621309117747 -0.027620223402262035 -0.9786600460488739
-0.11254349911718455 -0.05219710171637359 -0.9922748728950416
0.07524430086877834 -0.05141797511499772 -0.9958385848227825
-0.06980704318161918 -0.06582207666283757 -0.9953865736215408
0.05292770222330635 -0.04800968354591688 -0.9974435967127073
-0.19791764393298664 -0.07096101041735338 -0.9776467364138051
-0.04732027730042509 -0.03748665685059745 -0.9981761076655644
0.02226133268413316 -0.05176132932757864 -0.998411337001623
-0.07212866322636764 -0.03021586939168587 -0.9969375392561372
-0.15201169721063149 -0.031172541177429545 -0.9878869958591847
-0.019501518276818355 -0.03572846172179691 -0.999171240482778
0.18482652865340493 -0.0022148321002521667 -0.9827686649586971
-0.026434242069279815 -0.0380395210331533 -0.9989265366811472
-0.18725742112972374 -0.045623602437622195 -0.9812508064365906
0.00489094145402115 -0.03272135929672508 -0.9994525458156921
0.06063522064265808 -0.025135697280891517 -0.9978434580332827
-0.01616290610040072 -0.027471892787178813 -0.9994918987030758
0.09931025847418132 -0.02462367295161961 -0.9947518018541927
0.18366364277191452 -0.03463944745061525 -0.9823786311825328
0.10308859432597578 -0.033026100408380096 -0.9941237440136464
-0.08547066199586581 -0.07304987454854647 -0.9936591376153244
-0.15555772041294527 -0.0532615517517898 -0.9863898837300186
-0.03208787349965457 -0.033036314873793673 -0.9989389221938596
0.033509445402049864 -0.07001351423616611 -0.9969830614875809
-0.20584962738201731 -0.09447612421507642 -0.9740124192534623
-0.1030198915783621 -0.06014392858342319 -0.9928593101712522
-0.12814849015682875 -0.039141449260056034 -0.9909822962194368
-0.16487089314151446 -0.05767738172594022 -0.9846272940722086
-0.12175080358361107 -0.05729102053234036 -0.9909058889688304
0.04940858798377732 -0.04007306217910573 -0.9979744190714706
0.062702082098825 -0.05145285281752959 -0.9967050982298675
0.0006962255118196509 -0.043862679689420335 -0.9990373269305308
0.02160177093702359 -0.08173656219161483 -0.9964198401745524
0.11946382176294526 -0.03317731046966722 -0.9922840628367416
-0.058563654116803615 -0.07137158930138168 -0.9957290769366346
-0.01656066508703051 -0.04937771415029365 -0.9986428719603256
0.03858465913499447 -0.042038298210694484 -0.9983706754322189
0.00908391168845911 0.03805687978633664 -0.9992342850650014
0.08187741237386717 0.02249272243921663 -0.9963885621484382
-0.030804904476739975 -0.012308195232481733 -0.9994496316424846
-0.010188151187875279 -0.005589597815964418 -0.9999324767061168
-0.0071374635760189375 0.008801506896363793 -0.9999357929837568
-0.011572653798646138 0.00043114199981533064 -0.9999329416519054
-0.02882309270853803 -0.035520263113607405 -0.9989532222456942
0.1709160616323973 -0.019838553566154608 -0.9850858498975983
0.007251867189373554 -0.023748811249252967 -0.9996916546548317
0.0861175620110984 -0.037035859635120016 -0.9955963592813869
0.1732447766394785 -0.0357404085843807 -0.9842300902539807
0.1586294019817836 -0.03637798891513444 -0.9866678036448702
0.08507687351922498 -0.010368600655412853 -0.9963204392727485
0.10657058134517541 0.051529003774120986 -0.9929690191349366
-0.023953911293166808 0.03205094757546545 -0.9991991527684929
0.2327477676205955 0.05250379488968143 -0.9711188537917549
-0.11500778330895126 0.016417232443341707 -0.9932289183553118
-0.03937677946028097 0.030379815745628994 -0.9987625023170414
0.09395567479064804 0.029653155421686506 -0.995134675080801
-0.0754754581276614 0.03349637827136227 -0.9965848924517778
0.0387790724469314 0.034817525767288054 -0.9986410383313916
-0.06673800476075424 0.01942598626547179 -0.9975814101005328
0.04867214155045954 0.11851170931672915 -0.991759042001493
0.1741253964279378 0.11811086963728959 -0.9776145297571722
-0.12948303353923252 0.06633617834819888 -0.989360225331317
0.040928702229266985 0.08769161582654039 -0.9953064964359263
-0.14353141668115135 0.0698639565868881 -0.98717666098603
-0.21506066187531694 0.055375515021000896 -0.97502946829822
-0.12252181286539021 0.08119947514864861 -0.9891385396433416
0.17116132978065468 0.08921011037547896 -0.9811958802372303
-0.01877172878016188 0.10307815177864783 -0.9944961120208073
-0.07376280304694438 0.08019438171770266 -0.9940462313331172
-0.1438809834993815 0.060686042584598504 -0.9877324874796166
-0.01880144327798139 0.083805328988457 -0.9963047588784274
-0.2234603188602992 0.004917009044849357 -0.9747006252777858
0.028207096269146904 0.05014940476507381 -0.9983433261768078
-0.03830885546626098 0.038564988228896036 -0.9985214936473678
-0.20953228745041144 0.03579699465175873 -0.9771462509213757
-0.11040658773146184 0.05279697460626341 -0.9924831811461193
-0.15225473798143804 0.012051002865779953 -0.9882678119275831
-0.12864741109053382 0.011335143078544456 -0.9916256139043063
-0.1556557826209078 0.026461647173927766 -0.9874568641543363
0.027464640218806596 0.04841172820089745 -0.998449797491218
-0.16859818111645133 0.018163939808686733 -0.9855174907706361
-0.04601394620378075 0.014635172770048761 -0.9988335839731994
0.044712254127272866 0.11261193620194461 -0.9926325433692508
-0.05474910187664909 0.09169598547060465 -0.9942808366313187
0.07697089314609423 0.08228863641362619 -0.9936317536821571
-0.16938780086630684 0.04427474757162736 -0.9845544777436875
-0.02998239430274575 0.07470201115335635 -0.9967550679888809
-0.025629782813156803 0.05761434410976446 -0.9980098704851331
0.03728164201449154 0.08085754007690385 -0.9960281810176935
0.10896585911853687 0.1063398682080121 -0.9883411728629248
-0.1804306135112648 0.05994177302084572 -0.9817595314307196
-0.10421840849482164 0.06611096986620688 -0.99235470623873
-0.007856982983730554 0.07634013138881723 -0.997050877416961
0.031211692295350035 0.06700628345462545 -0.9972642519621662
0.004734948962894628 0.10535600390061836 -0.9944232965394625
0.044921721973582435 0.10406827914954567 -0.9935551480264095
0.018204732392141584 0.09901268204175728 -0.9949196331932687
-0.0852277381438695 0.10554179758009785 -0.99075585368669
0.04343991284197962 0.10732740410187905 -0.9932742835194281
-0.013221263238064218 0.11204115641316047 -0.9936156085066254
-0.02960234132163811 0.06761819721465749 -0.9972720194579395
0.12250501000690935 0.11556472584548719 -0.9857166513067863
-0.15368227273718252 0.06222013577644879 -0.9861594261326586
0.02147809364494656 0.10236161806704538 -0.9945153546527451
0.08500022085208965 0.08362801423946055 -0.9928652062034709
-0.14037998063193236 0.037330919474168694 -0.9893936847832573
-0.03721984040398724 0.07558656640781508 -0.9964443559271028
-0.09923456972709739 0.0735910526911207 -0.9923390837485394
-0.18189599391655303 0.047915900584321845 -0.9821496392446025
-0.07267053777516916 0.06185041546840414 -0.9954363460542586
-0.1029653890387185 0.058992528476100696 -0.9929340412354195
-0.04424625351146581 0.06005861668716664 -0.9972137341672662
0.015390698934841072 0.057524161560452036 -0.9982254741405191
-0.011171817226229744 0.08252696732350238 -0.9965262114787796
0.012144810533457062 0.07057164116481389 -0.9974327782063368
-0.04998388387009961 0.08162630027323386 -0.9954088398527332
0.05744142639474741 0.06289386171562007 -0.9963658187092898
0.08560050621752824 0.06667073384567468 -0.9940963567903175
0.09566375992986387 0.10337022985094967 -0.9900318381833199
0.008628865497881236 0.08420401361508267 -0.996411173548014
-0.10712249926209001 0.056749815960028226 -0.9926249183555421
0.06288187644843896 0.1123569061423512 -0.9916762552650145
-0.13500165215624094 0.056416883062467935 -0.9892379335734156
-0.026856501783364656 0.07769554829803282 -0.9966153370717452
-0.08155754170771756 0.04147757921254942 -0.9958051906940738
-0.08164046666579114 0.026411139148642834 -0.9963118417099454
0.08716345218254068 0.03015949361639873 -0.9957373838258884
-0.1714368198041774 0.016661990964109183 -0.9850542091035103
-0.10402775476710767 0.029209416624012944 -0.994145379820577
-0.12737396849128788 0.046980024227132156 -0.9907415149646241
0.037571617880371555 0.06846727816932004 -0.9969456381116958
0.009632368503273814 0.04632366783894766 -0.998880040482822
-0.08823064110545424 0.06798537820255157 -0.9937773102263789
-0.14891032622798833 0.022696542640303304 -0.9885901990687805
0.11946159880855937 0.07336816971234204 -0.9901242538606777
-0.10295835820357639 0.05233820230477404 -0.9933077514323185
-0.18911025700251002 0.019656497589068525 -0.9817591012050643
-0.12834829362451666 0.02896944494263169 -0.9913059501402132
-0.10646140065917202 0.03753344871469674 -0.9936081775012062
-0.13703263880330227 0.01446929690462529 -0.9904608499833245
-0.14071047276418033 0.016920709259676144 -0.9899061836621845
-0.1477853054726634 -0.0035056661394456783 -0.9890132525862687
0.0018434283922565688 0.06933789780197057 -0.9975915284825579
-0.015507574471346902 0.03637716342499875 -0.9992178026412293
-0.12340611568849935 0.051323742224177946 -0.9910281550464562
-0.05248589013856613 0.09036941323382038 -0.9945243086461675
-0.044283084856653734 0.1117555665715375 -0.9927485591708775
0.07932685267349862 0.10031867791399005 -0.9917879880833939
0.04440157859731249 0.08414077356482202 -0.9954641279533784
-0.11918487535174162 0.0819363946890098 -0.9894854181405387
-0.15317698620313835 0.05585400670379562 -0.9866190454440132
0.1050926847664851 0.1139875392537099 -0.9879080769502071
-0.09550190723510854 0.06949287230172775 -0.993000567176934
0.0358288472499302 0.08380820191588202 -0.9958375766139617
-0.14286608545809637 0.05363857790256961 -0.9882875009765478
-0.11912722197792759 0.04772639361548228 -0.9917312621553692
-0.06296952422317377 0.05855918272135615 -0.996295970652353
0.014758788645818782 0.05825639286346215 -0.9981925519899686
-0.06679424695979819 0.07178265435437278 -0.9951812795199245
-0.04841212074140004 0.09591024420116386 -0.9942119953121634
0.05408750530297055 0.08386299963377077 -0.9950083110519868
0.03745030205860324 0.1033691260918773 -0.9939377740315141
-0.10851986287125477 0.09281127888027958 -0.9897522446930904
0.0459738821700445 0.09356612897237047 -0.9945510452798996
-0.14480749081839644 0.07902058570812294 -0.986299415815109
-0.07176139883380162 0.06251428145691675 -0.9954608310985127
0.028075428927236357 0.06028290071360562 -0.9977864211203243
-0.03859294766442717 0.07682981916491056 -0.9962970256292338
0.07920764286991644 0.09898806868351193 -0.9919312030424793
-0.03775382834027333 0.06608128852431433 -0.9970997501517186
-0.004118058568484573 0.08374755422846401 -0.9964784938744925
-0.19124289914095632 0.05269387015240883 -0.9801272925373128
-0.05869115410438514 0.034304108917547135 -0.9976866123895161
0.0078570770549056 0.03147813624349701 -0.9994735580688412
0.07300951371218949 0.04089770524735397 -0.9964923424758518
-0.11658456486197695 0.05156933594151401 -0.9918410370752436
0.003943106170530175 0.033809923160445655 -0.9994205025961859
0.016374410653725666 0.046472296787656325 -0.998785364483793
0.02282426970448645 0.04716168238116986 -0.9986264709226541
0.0129222564565383 0.0598216286533686 -0.9981254370234885
-0.008167411940608271 0.04394571523389802 -0.9990005342815257
-0.0054659358485641685 0.02524832168068756 -0.9996662672100165
0.05097375129116301 0.037096778482130104 -0.9980107743434208
0.004186275936165551 0.04709297979508497 -0.998881737918862
0.0405338773427438 -0.010412103506689852 -0.9991239126795682
-0.04206665570727573 0.014599777344165017 -0.9990081295860943
0.01891504350436944 0.013101238641196639 -0.9997352542925023
-0.030552112249352593 -0.003464692908105505 -0.9995271703861559
-0.20914152948402887 -0.00914923330141289 -0.9778425804673662
0.033291817954553535 0.013686716233131703 -0.9993519543464328
-0.12329799525113277 -0.01711380299644142 -0.9922221132962371
-0.17312730669597126 -0.009026844696282704 -0.984858087112569
0.09470322548972 0.00855989380489656 -0.995468747525452
0.07184750730372166 0.01893866447814084 -0.9972358109705177
-0.08178488669936737 0.011754834566540768 -0.9965806822188984
-0.1385495378057038 -0.022814621659057975 -0.9900926818295245
-0.026100968814561296 0.0032255473536476897 -0.9996541078149036
-0.029091191019175143 0.009917673438936203 -0.9995275595793468
-0.06840153397990645 0.01280458639755069 -0.9975756977374617
0.016236215289264104 0.016769170911196653 -0.999727552996331
-0.10253948421641021 -0.008096224578939468 -0.9946959863818693
-0.11627109544782588 -0.06195853659034766 -0.9912830938268569
-0.07458872427342117 0.0007400614295157287 -0.9972141066593192
-0.12791280835395807 -0.002899981355531187 -0.9917811772599545
-0.17698076964682494 -0.01356264732969281 -0.9841208572998684
0.006203059712613757 0.10106097867421047 -0.9948608951203242
-0.025820198463687383 0.0806092172886682 -0.9964112963226602
-0.11283756346404417 0.08989327635169031 -0.9895387224046649
-0.22191958538873033 0.06845020699461722 -0.9726593786024418
-0.1189531632603758 0.0815509024203907 -0.9895451456425677
-0.0893510922203474 0.0879422530702911 -0.9921101463264812
-0.13610534491224116 0.08804636969199817 -0.986774124037705
-0.10095119763698991 0.09590182570915731 -0.9902583983593918
0.04708622912624047 0.09542215498462667 -0.9943226334368344
-0.027272563546596983 0.0837887753971122 -0.9961102591556062
0.06063997714815367 0.11151778987898961 -0.9919105684042171
-0.021416589811907832 0.10879913851710277 -0.9938330227652757
-0.09035758769687618 0.10924693049209291 -0.9898992951425196
-0.16694832859020056 0.09238720534177534 -0.98162765846836
-0.007788579332020776 0.10730816312086588 -0.9941953008134843
-0.05586181040779124 0.07915875188337486 -0.9952956094237684
-0.005259146477608806 0.0819653835726163 -0.99662130083303
-0.10310383985053834 0.05982164631371473 -0.9928700664439388
