35358
0.23326222101515315 -0.16084367920609924 -0.9590193152937658
0.2725631901503028 -0.16023645015853388 -0.9487010000077377
0.20737606005660997 -0.16100088541110505 -0.9649216986948929
0.3520401314558589 -0.13939087214405882 -0.925547368105739
0.1899835874542261 -0.1578508990954119 -0.969014618131632
0.2532821714085931 -0.15078627911983708 -0.9555687519355908
0.2524320752103008 -0.1590969379918983 -0.9544454996104405
0.3575704904181694 -0.15702549412042568 -0.9205902120804599
0.4883008388004141 -0.12714507006096448 -0.8633634356318344
0.17881073422615348 -0.1601448182300963 -0.9707627714944334
0.17712979130465864 -0.16367475339945975 -0.9704821544634369
0.30496034001006467 -0.13107702461581278 -0.9433016509255199
0.2571719910411387 -0.150738928100435 -0.9545367162027181
0.2687727127680866 -0.18293908886192248 -0.9456714644302499
0.33035237346737345 -0.09171852415946383 -0.9393907715484983
0.33628344362523943 -0.1006948264336589 -0.9363621080933624
0.3291358421806453 -0.09986856184697995 -0.9389866174481154
0.37898504647332465 -0.10445281873426686 -0.9194889576324876
0.3894883483455 -0.10653920019507829 -0.9148487445063733
0.39019238157199165 -0.10245777879751669 -0.9150149227892714
0.19015881590533612 -0.13176274936125582 -0.9728711130536478
0.3213418728516193 -0.11903980823035833 -0.9394513956606235
0.28280800321711236 -0.12405319235149283 -0.9511206226256235
0.2880183554641458 -0.11359039214268721 -0.9508641594510752
0.3145664359697516 -0.11382951109340889 -0.9423856958621156
0.2803383551845609 -0.10850363870273187 -0.9537491111401794
0.19162277973485117 -0.14145484893478447 -0.9712215174714397
0.2190424915672694 -0.1388032112816187 -0.9657919317461257
0.23892624133102125 -0.1513042878114939 -0.9591773890648628
0.36027457235020177 -0.12806381695106098 -0.9240140103406466
0.23058657298509017 -0.1408231833754569 -0.9628076980285285
0.22699364624370688 -0.13489377813400494 -0.9645089699871747
0.4171770790264865 -0.12309592278679671 -0.900450264327906
0.3931051154725451 -0.13602150526538168 -0.9093769945928128
0.2876919664023906 -0.1317683231081418 -0.9486150122640872
0.40778223328448143 -0.10220259850218973 -0.907341324462256
0.35655595147040847 -0.10604903018943265 -0.9282356687107604
0.26140578663576103 -0.11879187780959695 -0.9578911756978498
0.3984542902437666 -0.10162976550463104 -0.911540218174607
0.29773758126866356 -0.13617248027938714 -0.9448859128565977
0.3186109892345759 -0.1251875800944421 -0.9395824111428772
0.26720523366614357 -0.1183604286207703 -0.9563431246357812
0.25288769634558184 -0.11670317700408485 -0.9604312476768851
0.26933073000563973 -0.11762598489756404 -0.9558373740085221
0.34060989675464626 -0.12724744673100136 -0.9315540701071678
0.29627388950217576 -0.1386104590494954 -0.9449914936343823
0.2442913895379753 -0.11083500401488168 -0.9633469358868728
0.24677769333831234 -0.10031283660699805 -0.9638662276905855
0.12778896015298477 -0.1394513385446402 -0.9819487287232094
0.21860735179532076 -0.13708274158419245 -0.9661361952130758
0.34023321360148817 -0.12147302067189555 -0.9324621523746953
0.4039778783721518 -0.1260977101081917 -0.9060360044123001
0.38877957087392606 -0.10719532957971388 -0.9150735525559585
0.13150842294308535 -0.1613459257868493 -0.9780966347590646
0.3192747697723013 -0.12904767690265087 -0.9388345533015247
0.3130408106584717 -0.12541941236872625 -0.9414220211272787
0.34460742083767 -0.12756804749388856 -0.9300387727198292
0.2949879666133067 -0.10715317273833899 -0.949473694804366
0.3489742936743923 -0.10725092243540953 -0.9309748557244781
0.3746692867150863 -0.1217969376273808 -0.9191237302871689
0.3770585848815317 -0.11416319677023756 -0.9191265353966976
0.3313132040064425 -0.1278241854340788 -0.9348221961790916
0.2755459105330332 -0.12968421406745637 -0.9525001080368589
0.3044000132677162 -0.10762429667090893 -0.9464447383174078
0.32892505581528103 -0.1132562779299342 -0.9375400381671024
0.3136273820340552 -0.12032635963288228 -0.9418914122211557
0.2380456636494514 -0.1211296575715866 -0.9636710372706458
0.13172478244500313 -0.15088822841468796 -0.9797353337589155
0.2866625203452355 -0.09933018041781405 -0.9528683616782971
0.22695387433432543 -0.11869241898008287 -0.966645772039218
0.3704574856998252 -0.09619844864969121 -0.9238544851687178
0.3179269043011325 -0.10407669247224047 -0.9423855504014996
0.382697557678488 -0.10760270515368123 -0.9175860925224021
0.37138909745185256 -0.10747751225012515 -0.9222357196803985
0.31006524879931857 -0.11894960495579109 -0.9432446835089388
0.3312809671260909 -0.10004045789847171 -0.9382136364407981
0.31075830527894416 -0.11082941094532538 -0.9440053587610988
0.33243468548221233 -0.09218424295931255 -0.9386102733501063
0.34748932297552637 -0.09415921373268378 -0.9329443782387314
0.22028251322026957 -0.10746274089404993 -0.9694985165996388
0.4384533532346747 -0.08227356926878013 -0.8949802885187165
0.45603244557320977 -0.1051068832403681 -0.8837346613548736
0.4523879068108705 -0.0988797728319242 -0.8863227246866608
0.1407131290273319 -0.11923946187702471 -0.9828437139497893
0.2098929747113486 -0.1129740782044504 -0.9711754716943154
0.3932145210230652 -0.10500760308770264 -0.9134307547649012
0.30628340332984766 -0.10107856377876963 -0.9465588205648433
0.35814777966411654 -0.10104202278068937 -0.9281813818182577
0.2985891433141727 -0.09209917628604848 -0.9499275052457108
0.35633473797883486 -0.09641589111215708 -0.9293705022490244
0.36448819889203327 -0.08946275439815314 -0.9269006249021183
0.327973864893746 -0.08699668465621488 -0.9406724832828299
0.4864940413417998 -0.0721757363647625 -0.8706975426743363
0.33967868507804483 -0.08714857406098174 -0.9364953373844357
0.23383146313349215 -0.10214116070037764 -0.9668971145575056
0.2293098305765798 -0.1039528517242089 -0.9677865499268653
0.26846114276064487 -0.10905201891230956 -0.9570978382583455
0.17856230448899607 -0.10266704118132773 -0.9785576028372835
0.24589466849320218 -0.09789192757915674 -0.9643406983641495
0.3193007930069238 -0.08834243312948736 -0.9435266917760788
0.19490010473290126 -0.10957038450211837 -0.9746836820297968
0.3486818722718565 -0.10777605778231629 -0.9310237769884804
0.4079718445197638 -0.1416419780096891 -0.9019404216158873
0.3211434863210687 -0.1401881373466863 -0.9365971104700336
0.23550030662659655 -0.15498300193890974 -0.9594372698039112
0.33417678058695477 -0.14679620613052785 -0.93100846031721
0.4061516005567522 -0.1365830520548188 -0.9035407833941859
0.4044860552981042 -0.12760653555766235 -0.9055979257663691
0.2894323389237096 -0.1326960517502244 -0.9479560533247587
0.23611644249681882 -0.15054139703048833 -0.9599928715166355
0.5009270769319454 -0.11461124634803531 -0.8578673124714375
0.20481087461457242 -0.12813327728525628 -0.9703784668322735
0.26621811301428316 -0.11789365255415676 -0.956676017777468
0.17010029930900827 -0.11412815274260914 -0.9787955112926017
0.2828374870779628 -0.12960946773822665 -0.9503706338981844
0.20746202020296117 -0.0996706159524117 -0.9731522380845522
0.23009899152104213 -0.1357100265741294 -0.963658260374625
0.38060350512630203 -0.12348158650691163 -0.9164569109779843
0.14148397699308224 -0.15530505407027234 -0.9776822717194226
0.23937154406030858 -0.12082757566202271 -0.9633804860250295
0.2943327725724318 -0.10827626080625258 -0.9495496144676389
0.2810030621485887 -0.12554961241522045 -0.9514591814079596
0.4294977615070399 -0.09922142094573624 -0.8976005695664142
0.2657446368550472 -0.12691721069939574 -0.9556525569531347
0.3326590899828482 -0.148739698366169 -0.9312434869472777
0.109478919128317 -0.14375723599789825 -0.9835386232196173
0.36974544034564216 -0.10439568563703672 -0.9232496142235751
0.34356829636868663 -0.12052504336776533 -0.9313616588906356
0.2697194749498611 -0.12414741923442225 -0.95490252022403
0.3705841096114021 -0.1054945401484965 -0.9227883396003558
0.23530536821923564 -0.12577422450173392 -0.9637490483202551
0.3076921851666988 -0.12424665101423024 -0.943338904582595
0.31747146699907136 -0.11783397129887072 -0.9409181807412346
0.35445605793327717 -0.12884764668328613 -0.9261528960914501
0.18553661228062257 -0.151747411078349 -0.9708495706001258
0.23177823781161544 -0.1395187418182779 -0.9627114672415548
0.2068100465572847 -0.12119536872135606 -0.9708456557267321
0.27586924717533606 -0.12635928951057124 -0.9528533404555484
0.31043133477923446 -0.14467807632866694 -0.9395214955587867
0.11823646643201101 -0.1388278233319135 -0.983232919238669
0.28179561711858436 -0.13268249874052257 -0.9502560627013793
0.11275283590062593 -0.11867375000273737 -0.9865106887695918
0.32561249158038286 -0.09841536355482267 -0.9403674396443059
0.2215653118107616 -0.1119776284125428 -0.9686949072526926
0.32729354125935506 -0.09884821964353364 -0.9397382440462954
0.29975496898450754 -0.11042552598796943 -0.9476039055319355
0.3552472138342325 -0.07771851330053717 -0.9315359626731378
0.2780182317091077 -0.08430043932683481 -0.9568695306919558
0.3505346044351547 -0.08477078664928904 -0.9327054223195823
0.2837141787078297 -0.08266774932111941 -0.9553388446108125
0.34353556168021926 -0.09050399142239762 -0.9347686052695988
0.24506967557583775 -0.09117075443153726 -0.9652091730032086
0.2530605368951338 -0.10983826371014914 -0.961195048099753
0.18296647260152527 -0.10896835078063592 -0.9770614967502832
0.28780601983220827 -0.10702006255278129 -0.9516902863639732
0.18443064411988605 -0.11657376767682098 -0.9759077283222808
0.3090303784029721 -0.12024456592542836 -0.9434200917881288
0.24849982514248967 -0.11292701516489811 -0.96202667642332
0.20696681452239377 -0.11150364183318848 -0.9719730837550951
0.21070555181251904 -0.1176470363426354 -0.9704444060713506
0.3353956900512378 -0.11381206184123076 -0.9351772803455514
0.2658520737813848 -0.08960655617537895 -0.959840267938643
0.2012475428712776 -0.12034578197360525 -0.9721194984411303
0.2953852009430223 -0.0922388146867674 -0.9509151298244395
0.16400366632224186 -0.12703034599275145 -0.9782464355313669
0.208079534529283 -0.11164704974924886 -0.9717190147323278
0.28135537674842676 -0.09526542693581212 -0.9548631579475083
0.3266073702655309 -0.10231974356146294 -0.9396053936444548
0.27167856822227926 -0.10481292912210494 -0.9566634755532047
0.3125421513860072 -0.10627241339067638 -0.9439404524434406
0.12133764828834671 -0.11893840200708143 -0.9854597057393343
0.12779293512062884 -0.1199463263158084 -0.9845211244745318
0.2660357709778695 -0.09961706775369757 -0.9588020694451832
0.22458048871127484 -0.10085321154072019 -0.9692224893243696
0.18654240868626784 -0.09029541627627681 -0.9782886422528985
0.2521771782583435 -0.08418088819939154 -0.9640125771107041
0.2892891642429907 -0.1165313551447214 -0.9501222146227962
0.13903246707599054 -0.10656946939254328 -0.9845369070238837
0.25715935291686 -0.09949696178400579 -0.9612332816767915
0.3309007892338546 -0.08048388324272797 -0.9402271067261266
0.1883473757867677 -0.09877628450093448 -0.9771225673652352
0.2522321304730057 -0.11701829338353452 -0.9605652874066675
0.30685721481211725 -0.13556736015653054 -0.9420510286486289
0.25779294680784587 -0.12194884890044966 -0.9584734085137587
0.28842104286472586 -0.10647567190823214 -0.9515651492801291
0.24435920189652455 -0.11389715620360277 -0.9629724909140581
0.3392698861196027 -0.12866771277292793 -0.9318479296871218
0.19615257417756232 -0.13355362211444496 -0.971435843308053
0.36974951149436075 -0.1054375924098012 -0.9231295753340948
0.33632061117943396 -0.09798401349914865 -0.936636311272679
0.2831463382305814 -0.1167197824063088 -0.9519478155558934
0.28572066040755784 -0.10435727087466226 -0.9526139114204986
0.12232218731818767 -0.1575800791262058 -0.9799009139460342
0.3621190575499797 -0.13154651658911773 -0.9228029595381583
0.2278067679861039 -0.1489956026216524 -0.9622392565568796
0.28561570262623437 -0.15685581558316256 -0.9454205009047897
0.5356817111107262 -0.1721465230235543 -0.8266865663553422
0.34141231558608065 -0.24829696177188154 -0.9065242685891004
0.07574710213477757 -0.00702513819796877 -0.9971023136827449
0.11641783779528679 0.04317555157151671 -0.9922614367139165
0.04988692125711314 -0.00007496650147548536 -0.9987548695588474
0.10429933173747623 0.0434906603224057 -0.993594591301622
0.17720922613120552 0.04366017503634763 -0.9832042917368571
0.18796756986630295 0.03353796661978388 -0.981602464072685
0.06876664256885333 0.014363083733493785 -0.9975293733497136
0.09444844500787218 0.006660467087422385 -0.9955074733088509
0.07268968299595044 0.010412595302122803 -0.9973002495963904
0.1351168946624073 0.007925825648615279 -0.9907979643017923
0.1806895163330941 0.03425209967217216 -0.9829435855405743
0.1773753644121259 0.019200381458237777 -0.9839559570689757
0.22581368324273196 0.018255013285970848 -0.9739994532597439
0.13083151391343276 -0.10202140393339863 -0.9861413428644891
0.010148157119295106 0.03467408352334098 -0.999347148311786
0.08454358777367524 0.06096178012986524 -0.9945531876826663
0.10888520212145922 0.0627405947598698 -0.9920723917780128
0.03407792203976446 0.042081412841667075 -0.9985328486948745
0.023435206567653244 0.041578990374395636 -0.9988603399137326
0.07986389872014749 0.04596941330557092 -0.9957452338432555
0.0550596122365993 0.026582525238039407 -0.9981291541941476
0.02148720713628991 0.020931216005927893 -0.9995499908088616
0.014161206687731732 0.03376423971878956 -0.9993294933811168
0.2612395067053117 0.0546046352469296 -0.9637283091960698
0.01913756404113688 0.041945879721970905 -0.9989365829805821
0.20308262244044423 0.06896680680791459 -0.976729762022962
0.11314054774665636 0.04074406729492703 -0.9927432384236385
0.26701557693226285 0.029273372509845068 -0.963247502637526
0.13315831598718963 0.03390243126194684 -0.990514759121733
0.10330018916871461 0.020851972167675918 -0.9944316297133887
0.0617883045447146 0.04581656754784045 -0.997037134493808
0.1420456403446324 0.06078385952321952 -0.9879920842195776
0.12572785555887797 0.06620648371361071 -0.9898531243830296
0.14983013677793067 0.07717202637743861 -0.9856953933431497
0.02080694261216843 0.055920407825322864 -0.9982184025190998
0.18694485762814758 0.04704689318446979 -0.9812431961792555
0.360316699174889 0.08054518615118864 -0.9293461945279504
-0.0007684912100541014 0.03472146003487439 -0.9993967328515272
0.12390363924464375 0.04110644162235767 -0.9914424585618073
0.1800174760733201 0.052555560745477695 -0.9822584290006985
0.10530389772804573 0.0390490087750783 -0.9936731172961082
0.0020194416890006407 0.02836433398500206 -0.9995956114413729
0.24902735875138082 0.04775502517215874 -0.9673183716668042
0.11867747442827815 0.05322321579340131 -0.9915053940165603
0.21319716266577252 0.04854018718335393 -0.9758026542592868
0.20915817406096635 0.07631463961070331 -0.9748994481507163
0.19112395053811404 0.04283215073639464 -0.980630940973208
0.23908669411351052 0.06373156507446322 -0.9689044536542456
0.2279922472694228 0.06152784303921355 -0.9717169648184498
0.36442934826360823 0.061971915606381385 -0.9291666867684385
0.3024108324864313 0.04449384768069569 -0.9521386379689833
0.24264108591319572 0.03884446182521155 -0.9693381304851135
0.025734088500462424 0.033597706192341474 -0.9991040740721978
0.11389837734763797 0.04377137164873877 -0.9925276956647422
0.11809023810150844 0.029268990345734644 -0.9925714190269991
0.21891496333814586 0.057847515831759115 -0.9740276709307353
0.1854482191468205 0.04380900129156828 -0.9816769985189163
0.1921247761086497 0.05271339656817205 -0.9799537582087473
0.16577669370857626 0.03457338635214978 -0.9855570854999713
0.007800371593415831 -0.0030477395263847316 -0.9999649321285142
0.04783103546424875 0.01613431465294113 -0.9987251253158188
0.1388171742438019 0.041731311851118905 -0.9894383708681156
0.12566530348859972 0.01758433346807282 -0.9919168426413587
0.14345379045597353 0.04415634117055525 -0.988671445697833
-0.023465523220093536 0.008657734766297259 -0.9996871574891436
0.17401734088440393 0.035003989138623626 -0.9841202598340837
0.012820016083203246 0.0016675973460683648 -0.9999164296613582
0.08515104136403494 0.027023960350242404 -0.9960015088952472
0.20053595146151415 0.019172695429534675 -0.9794987186930832
0.19533826508390006 0.031681345468899155 -0.980224083841696
0.1682612500308081 0.024153387918759164 -0.9854464803276309
0.21011686376138614 0.026164282335591756 -0.9773261144024253
0.18404213444111517 0.01002348765309756 -0.9828672455859065
0.12628781701655337 -0.002812468950737449 -0.9919896558390087
0.04690428646271206 0.012271697114440192 -0.9988240051987914
0.08878954607021125 0.00881371286262304 -0.9960114130742785
0.1292891865436261 0.006289856898284166 -0.9915869825401534
-0.009696036022110919 -0.01850980064388508 -0.9997816632473221
0.15921935085480513 0.009856316262089345 -0.9871940292278495
0.2543045958653083 0.03312910825908007 -0.9665565863971651
0.06618140509430762 0.007225724863591836 -0.9977814442651952
0.25930937892905803 0.01602609861805593 -0.9656613330575635
0.14749511941905266 0.03264156806484053 -0.9885240097143962
0.2591832777091081 0.006109227713586831 -0.9658088350666021
0.06646100706318202 -0.009084348908632793 -0.9977476680729723
0.08404613259403769 0.0016714675771979358 -0.9964604627340333
0.09686750099596451 0.019791773606417196 -0.9951004838448775
0.020194727672239385 0.013714274566751717 -0.9997020014220998
0.2918306224475682 0.03673782848037713 -0.9557642071977854
0.2129001918234383 0.03035453101387128 -0.9766023299012097
0.10748003655985812 0.005874401669339301 -0.9941898878715871
0.189461270067643 0.007533436675277173 -0.9818592946426771
0.06962254297976302 0.01932813988945208 -0.9973861461427289
0.06374577596475914 0.01740737796130973 -0.997814341067096
0.1728154039079037 0.023504677812129657 -0.9846737359618648
0.1977818949437041 0.018860791044718387 -0.9800645859297464
0.21576299421142747 0.01655241447014184 -0.9763054582988504
0.12378864501438644 -0.0030336184329152124 -0.9923039698221033
-0.03645701360562663 -0.008004097863617533 -0.9993031675004083
0.0910469652582634 0.005038824780270209 -0.9958338517855749
0.2996573948017862 0.03727167495357829 -0.9533185553563727
0.3653883054672682 0.040057902458161224 -0.9299928766815426
0.15377862668643202 0.014280371133325743 -0.9880021280213568
0.15191936745814036 0.019978599500883324 -0.9881909538915553
0.05476015517425338 -0.010759050239706053 -0.9984415697692235
0.36515022078216497 0.015673974015397947 -0.9308166536978703
0.021183306334649703 0.000009987964090196061 -0.9997756085407231
0.1280825764340992 0.011809402164901197 -0.9916931943068436
0.15172404780790352 -0.006498513157810295 -0.9884015290576613
0.24820046319691244 0.004419490664822789 -0.9686986105962482
0.02163200614930225 -0.011030884564449853 -0.9997051444779518
0.1432333760783615 0.009734850606837268 -0.9896410625377553
0.12316243581013876 -0.004508923090144094 -0.9923762814668037
0.3510436519563257 0.011911719776170518 -0.936283325363183
0.08905552775722957 0.060550918848730595 -0.9941844392276796
0.043289100402925274 0.06285650769920526 -0.997083303052541
-0.010234702114515257 0.02758046247327291 -0.9995671908193003
0.14090996231130404 0.07490767165121917 -0.9871844930149684
-0.04668269361650437 0.043506837696137016 -0.9979618635951925
-0.046205180651161144 0.03255613923517465 -0.9984013116373063
0.040887856276946834 0.033228156673888856 -0.998611071845857
0.06219397202468566 0.06539320089053333 -0.995919494297146
0.05500036662471049 0.06443172618052519 -0.9964052952150272
0.10109568865610344 0.05259462766719004 -0.9934855141750673
0.19684525481392065 0.07605381128334475 -0.9774803135851484
-0.05853551199905 0.0434446643190056 -0.9973395384608083
0.13229907853247314 0.07460541506432206 -0.9883981919563284
0.19522297433005853 0.06740432900633685 -0.9784399045035577
-0.015535796052680066 0.020933581439982543 -0.9996601543570222
0.09569891102009588 0.06248184193656672 -0.9934474006497686
0.16017821476564664 0.042267065257316015 -0.9861827592840103
0.16356248862638828 0.04746429219970739 -0.9853905080120894
0.17440138616811302 0.03792575573238165 -0.983943999196483
0.057225752623242275 0.046075807833616415 -0.9972974647361654
0.21662529969856964 0.06514764690824924 -0.9740786742521483
0.05511392977533582 0.03912202940262152 -0.9977133463876986
0.15700238062557398 0.037720408816226486 -0.9868776130993342
0.08242425314670887 0.02799868821876862 -0.9962039529891635
0.04394440683327229 0.053465446063451987 -0.9976022930934492
0.17022640242062687 0.021508579418237007 -0.9851702152066617
0.2069034714009821 0.0574366853015424 -0.976673937762135
-0.0003469654777486925 0.031119054529796564 -0.9995156247203586
-0.030907164041454136 0.02395275515768875 -0.9992352139167587
0.01832393487257223 0.04207204798953918 -0.9989465331982247
0.005068757484071957 0.04382434882230473 -0.9990263931187547
0.03212693951349313 0.06856052166041288 -0.9971295375361962
0.08202633143940471 0.04726446539604068 -0.9955087901477412
0.15453195991680846 0.037435875701641884 -0.9872782933776683
0.08627403782669181 0.03810681058547187 -0.9955423955734288
0.2293993461358547 0.06200167780297 -0.9713556155919721
0.11837663617304756 0.07844176684109315 -0.9898655773503802
0.11990658505793936 0.06834951659216845 -0.9904295807584506
0.34288283659702273 0.08397327003055402 -0.9356173631819554
0.1200763974628725 0.041664648693531633 -0.9918899716307162
0.1808194336358073 0.07205314208571477 -0.980873425644309
0.19908555294546426 0.08130393537101309 -0.9766036108378798
0.16855921780556718 0.06560851874303024 -0.9835056239600874
0.17384442601003222 0.05794341634427509 -0.9830669743448799
-0.06943008069325145 0.032087275931787985 -0.9970706447480069
0.26519643691652417 0.0647145387527259 -0.9620202068152218
0.17641452479507866 0.08063794897617468 -0.9810073580897559
0.03132523399845068 0.07493628641330177 -0.9966961837458423
0.264072937708789 0.08240613049784916 -0.9609759170896124
0.012906214625798863 0.049246826898616314 -0.9987032490507132
0.08119871535371656 0.06677572254333478 -0.9944585318170496
0.20236692365668824 0.07715763671659752 -0.9762655004178104
0.2195681514866785 0.05766859858646868 -0.9738912462846125
0.26365289097662764 0.06870039031083597 -0.962168077547164
0.172765790939915 0.06637599990602189 -0.982723871755124
0.025025424184342837 0.026910442290061433 -0.9993245500037248
0.03274299112283768 0.03319560030476018 -0.9989123828708584
0.01855001123648018 0.02583084930190599 -0.9994942042390585
0.01858634129439224 0.03054793299201216 -0.9993604813615576
0.15179818596505498 0.0506235714419353 -0.9871142612444529
0.19574844207696512 0.03826395456372606 -0.979907351337659
-0.03364913962011919 -0.006572548725140331 -0.9994120956873004
0.00050291756777213 0.037644533155405384 -0.9992910668055788
0.050257605241486064 0.03858547045481084 -0.9979906485459531
0.11438715346068734 0.06346098625672414 -0.9914072232672532
0.16090775761329956 0.05082766121917646 -0.9856598005371064
0.19409511513977354 0.04897047095612256 -0.979759653819861
0.11717142967928867 0.031864146994240956 -0.9926003889799968
0.33857265035875916 0.05250400204674731 -0.9394742626587068
0.016104934375561514 0.010229037746811147 -0.9998179823725584
0.1597467718433141 0.05574414907316069 -0.9855828522908409
0.08124312159355017 0.04633058732773974 -0.9956169101976937
0.06953012964205299 0.03232523156391171 -0.9970559866307904
0.19327192189077777 0.06476380348142066 -0.9790054208058632
0.1882074301052791 0.06543367053977603 -0.9799471404177159
0.0931507450080137 0.02978697660146154 -0.9952063478140581
0.11029836376401911 0.04533578545909551 -0.9928640075598405
-0.021590493689663693 0.03011994201180701 -0.9993130839108644
0.17884189741123233 0.05100437289146834 -0.9825548990648301
0.1781193367324333 0.07727210678646336 -0.9809701949574103
0.20302604410238012 0.06495730853936307 -0.9770163629558415
0.08136426520912109 0.03768996605869368 -0.9959715471867027
0.16896408225319343 0.03509649563748838 -0.9849971446163203
0.16907421270753703 0.029104359331009265 -0.9851735110452667
0.17865191411469905 0.026202975754031563 -0.9835633673763923
0.01734559683535325 0.02165527289586853 -0.9996150156066239
0.13887774511969742 0.04547123863734243 -0.9892650496036208
0.10312689178969707 0.015341340280625488 -0.9945498918949166
0.07565014558276739 0.023170877731871056 -0.9968651693676738
0.1065837774971097 0.03225472874097874 -0.9937804238604686
0.1954450983304949 0.047433530166818366 -0.9795668806949818
0.2116030400791139 0.05622908786376453 -0.9757368718600758
0.095014450344172 0.025987285453811924 -0.9951366314333611
0.206314580388067 0.027498583387541034 -0.9780992392548797
0.2618276381106823 0.08385763525238887 -0.9614646040969261
0.04503322088647536 0.005968077047641865 -0.9989676626762968
0.045817211719952476 -0.004754105553611939 -0.9989385274332923
0.0973078376386872 0.014147190013720922 -0.9951537779402733
0.12344636360925898 0.0410320405205071 -0.9915025804113543
0.08968782382210558 0.010698093640256617 -0.9959124685686586
0.04334486841072131 0.024750482066646488 -0.9987535411801682
0.12470442873035045 0.030558494079853754 -0.9917232395656607
0.05432182619734978 -0.00015456464899866757 -0.9985234675801837
0.08606953710285263 0.019416825201174083 -0.9960999054723415
0.1306283804364451 0.02671021162451172 -0.9910715366811446
0.023905850262483024 0.028383919536858645 -0.9993111944909618
0.05117091953916213 0.013342920851898326 -0.9986007728099637
0.14831931791153602 0.0030311452181039384 -0.98893487757937
0.14309539277667988 0.016566957278244403 -0.9895702322183244
0.03262004165485423 0.018221297601506408 -0.9993017147969642
0.15729227254186945 0.018991127034471977 -0.987369473952165
0.1941217874994929 0.00329472994575585 -0.9809719039669721
0.20384879317340454 0.025883262113057495 -0.9786601689371717
0.03802971293084729 0.0028230484577932433 -0.999272621125888
0.11089717059442343 -0.0061788777737410115 -0.9938126780352566
0.20329803959736215 0.02402985022007671 -0.9788219824841851
0.14453261081891083 0.012581616896283811 -0.989420045949214
0.16591960150600488 0.004104300933303561 -0.9861307421178682
0.07724114712625568 0.00745060089022816 -0.9969846005515806
0.2663042788778699 0.044172180248629574 -0.9628763417715799
-0.006171850435020991 0.005522099833341757 -0.9999657067498057
0.09481945973478381 0.0003698465852856273 -0.9954944164931852
-0.03514506146082814 -0.013571837894851264 -0.9992900629302138
0.10723505267215186 0.03832183229578345 -0.9934948820441375
-0.015130096562076999 0.012359475965034332 -0.9998091435528543
0.14874733689241443 0.03434570530258477 -0.9882786056040487
-0.031993164301496436 -0.019461340331226862 -0.9992986008548645
0.19802409774166635 0.01837744256319443 -0.9800248600512314
0.0852959034601483 -0.008119840972240517 -0.9963225767970445
-0.06694325982050706 -0.03509696456275534 -0.9971393097471811
0.011025531336057118 -0.017889780510943153 -0.9997791723235826
0.15040189872871115 0.006157350268132015 -0.9886057636370902
0.15341411823418225 -0.004978226365431597 -0.9881494449670469
0.0855523157786111 -0.011757812200153109 -0.9962642998307141
0.10892315774739987 0.010275099736176092 -0.9939970664100306
0.07768619579861712 -0.001152941543857894 -0.9969771941765446
-0.00000888399020232411 -0.011097588308479456 -0.9999384198313466
0.13402814327590234 0.00242787240525836 -0.9909745517648766
0.023786979386291564 -0.014044773935613738 -0.9996183891549684
0.12719288676819415 -0.013825504333910159 -0.9917816417868837
0.02347065999118871 -0.025619422813765225 -0.999396204362548
-0.008667119846053417 -0.01617614895628706 -0.9998315924387058
-0.039083375597707644 -0.04281651639767515 -0.9983182036181931
0.18367704947987543 0.0026696563077729177 -0.9829830183831081
0.1387629220090152 0.015582662202916075 -0.9902030257044209
0.21413500775587074 0.04519028921442588 -0.9757581853175047
0.17905816122490378 0.033404245795226765 -0.9832712399239635
0.05442695053397668 0.017873005193243367 -0.998357782932018
0.20730037625505368 0.020922855892652487 -0.9780535711840168
0.05862976178621289 0.01933513039830679 -0.9980925326668728
0.11513777960851329 -0.005515932779399692 -0.9933342167631168
0.21631429697192822 0.006283111971091672 -0.9763035631551793
0.08520509666492669 0.023813963271244284 -0.9960788054444469
0.17090764931866043 0.0031895807739240507 -0.9852818896025931
0.12430815563549485 0.034395313917051314 -0.9916473389381173
0.14027956170659256 0.026885675116857327 -0.9897468388638163
0.04710316463292739 0.030756200016329265 -0.9984164201585023
0.24835537396297036 0.02157362785690457 -0.9684287205596522
-0.023479600735349195 -0.004798470411570263 -0.9997128002736676
0.056547979328074836 0.001979685658316108 -0.9983979201093149
0.27274777204944833 0.02450194751988759 -0.9617735218905723
0.2811145620363767 0.04096351669216245 -0.9587995584642847
-0.042803116547350625 -0.0038170920264266155 -0.9990762348401127
0.2843587518044263 0.028268976271458225 -0.9583010827776376
0.09129545265250796 0.02039665120386432 -0.9956149441147626
-0.04585361518831485 -0.024009745565603702 -0.9986595906974693
0.012561695767360392 -0.0052514541221859706 -0.9999073087186886
0.1866155396906038 0.011356771325091592 -0.9823673773548541
0.12704192995150235 -0.005906813616424914 -0.9918797596418119
0.19664396585283708 0.003223280531213336 -0.9804696635573614
0.12574948772952177 0.01601047174882323 -0.9919328259162226
-0.022863719952903278 -0.03442001260124235 -0.9991458917707893
0.3186191037819876 0.003204233284116628 -0.9478774180210351
0.24251914705916225 -0.16456305837664642 -0.9560875813059289
0.24963139827288164 -0.19655393383972042 -0.9481828495013274
0.24654193436196825 -0.18328616585506655 -0.9516423992273612
0.24545644338045128 -0.17404046943072293 -0.9536566727094993
0.2867789539227439 -0.1689560677290908 -0.9429802112263543
0.2715043978808463 -0.19290852822496682 -0.942905966504315
0.309325210897553 -0.18468470390115682 -0.9328501884269127
0.23373311698671917 -0.19461496287208344 -0.9526247142762833
0.25128840831591837 -0.19867396676563345 -0.9473029033923945
0.380598953814284 -0.18853655923042822 -0.9053167413612895
0.31397103493781364 -0.17148939449709824 -0.9338166719410705
0.10929327691995079 -0.2079206040268625 -0.9720205769638849
0.24203131722125468 -0.19065105474937924 -0.9513532555297709
0.35632461338051974 -0.1885356475741113 -0.9151432016318722
0.3011108287039269 -0.17904518074840958 -0.9366296451041916
0.061621608828868864 -0.2114936717834339 -0.975434879487556
0.15615461431854905 -0.19745171704729164 -0.9677957201094153
0.23263941779965985 -0.20057081473713192 -0.9516565817360371
0.276545824470929 -0.1943997289684622 -0.9411329089691225
0.2878789635822349 -0.1802159517717797 -0.94055723539496
0.20841783657319768 -0.18009474622121283 -0.961315706613423
0.20481246447149032 -0.1946649857405075 -0.9592483503888671
0.237424775526081 -0.1970624314907573 -0.9512075872601842
0.22492552669408486 -0.20962810604208484 -0.9515590179272104
0.37915071817551627 -0.1797701903092216 -0.9077044737045072
0.3485456836506221 -0.18487926319080217 -0.9188773391756632
0.1846615838215877 -0.19388517349407547 -0.9634877471767221
0.4744242732662982 -0.1566641936263994 -0.8662435796998065
0.20513790289991263 -0.18903255021605275 -0.9603047098461205
0.2857254109339705 -0.2063888219942383 -0.9358229766908079
0.3138635184838652 -0.19388840878494046 -0.9294605837278804
0.28684298239996664 -0.17378300212015083 -0.9420831022908754
0.18157548516041794 -0.18998901137697694 -0.9648494798385694
0.23978614141016744 -0.20482890760341693 -0.9489719305636043
0.33424165769807734 -0.19221611859100204 -0.9226784261122893
0.2003709913682447 -0.18844102825028644 -0.9614267755217148
0.13081663438067093 -0.19480149289039228 -0.9720799280599247
0.13030879091208736 -0.20943659864825173 -0.9691005779369246
0.21585176741851314 -0.20044483696485121 -0.955630619976379
0.47011602404642194 -0.255042176594462 -0.8449523135022139
0.1946305991272021 -0.266164394137644 -0.9440738557849843
0.22262716600141608 -0.2603746303892478 -0.9394903920785145
0.2124783808191943 -0.26194442215449126 -0.9414021762172654
0.3927761136684931 -0.23409393114197283 -0.8893407423108268
0.36531789296892025 -0.2464213585558105 -0.8976744126487384
0.2301857418578564 -0.2508283084324518 -0.9402657517607791
0.16042430022999765 -0.24908094089151286 -0.9551035173112463
0.3073372739638074 -0.2424124900283738 -0.9202064902568006
0.39572939575159405 -0.22597161731257756 -0.8901320539713286
0.2559791184091695 -0.23806293060556746 -0.936910204880891
0.3840316439880356 -0.23509365512201547 -0.8928889459150101
0.3302037406367593 -0.262825947126469 -0.9065803942213655
0.28544343262440786 -0.25856323527513714 -0.922858114845207
0.4350000257588377 -0.23477771108211187 -0.869283845454898
0.4397531464203032 -0.23514141458508656 -0.8667904506628854
0.23514194653688414 -0.29009912204069394 -0.9276587542680034
0.24093250262682808 -0.28238134372401125 -0.9285538788323462
0.4871146243824952 -0.26956286971003673 -0.8306956133183745
0.4032423535308214 -0.2541934408076679 -0.8790798023895685
0.4129114877259789 -0.2884125372247692 -0.8638994800759462
0.30830315962571814 -0.292226741239115 -0.9052914964085139
0.48945914688040326 -0.2903550797029689 -0.8222673964263636
0.5680202772085445 -0.2764753713059166 -0.7751866444548589
0.40075209279145596 -0.3042186283665682 -0.8642041346105862
0.4824879373726893 -0.29356029769934305 -0.8252440499055543
0.36439831308039394 -0.3057893862177262 -0.8796060031063622
0.3067170550400645 -0.296097055097301 -0.9045723752747793
0.20938138854722155 -0.31311594040761653 -0.9263465021214747
0.47318413844945667 -0.27642634504816477 -0.836471904419484
0.3985697515121132 -0.276272151795023 -0.8745375070985351
0.5433866023244869 -0.25075892488229684 -0.801156016020678
0.3054027608104947 -0.3093469416170064 -0.9005740521475912
0.4799221193401114 -0.2864575362094796 -0.8292266513546768
0.30342907231092586 -0.3068457383597735 -0.9020956107458769
0.21593641175363504 -0.32002174552901236 -0.922473603127769
0.3508823015654633 -0.3005172095347577 -0.8868883905100833
0.5387124956900192 -0.2659277102683325 -0.7994193517165273
0.3455269641192411 -0.30302712078647165 -0.8881360712944846
0.30215672094925516 -0.3115696079081691 -0.900902711402926
0.2816090167968135 -0.3029818141009222 -0.9104385657378791
0.4842517286017612 -0.24870146526398776 -0.838837197864849
0.23348585628761492 -0.2828414917979334 -0.9303144873811
0.35081194104274893 -0.2728013380363719 -0.8958294547442522
0.46920100780926416 -0.2569035436962841 -0.844897025386563
0.3937961262894624 -0.2423803819745667 -0.8866658679306862
0.3887225064847122 -0.26551624121305534 -0.8822674983270854
0.46088405971186275 -0.24706080743252684 -0.8523771705848885
0.544445296782255 -0.25364864888404165 -0.7995259106063934
0.312906036677437 -0.2852632268810437 -0.9059330569088605
0.36986566886374345 -0.303425729535659 -0.8781413403614073
0.3521819032476603 -0.3022533879880228 -0.8857825898461865
0.39476842708322 -0.27553545998034 -0.876491927670565
0.3879760481257607 -0.2609523167972806 -0.8839561496131181
0.4516761837306916 -0.26621853421412606 -0.8515376193048436
0.5232067178584657 -0.2591180133628934 -0.8118574909050476
0.2896344913236756 -0.2709933855534154 -0.9179730096369793
0.37193629566241265 -0.26812671092299506 -0.8886908679954685
0.20308408172694897 -0.29069687471542077 -0.935014536132893
0.45165531992213315 -0.25286154912208025 -0.8556100215411326
0.36240919439435393 -0.26022523121541796 -0.8949538562726672
0.3729052453564026 -0.2584443235150321 -0.8911499366708943
0.3214247696748981 -0.2693622995149263 -0.907816098689305
0.18488454742365945 -0.26809124218271124 -0.9454865361224768
0.3292212132717572 -0.26793633176717235 -0.9054410609482121
0.2860095610097547 -0.30212788022052295 -0.9093499189005632
0.2861087620780629 -0.2910381307063006 -0.9129285748278124
0.44423580906303084 -0.26745168769555977 -0.8550579750490088
0.28408426382155877 -0.2916088201111836 -0.9133785781823036
0.27164713955612035 -0.2842532960409469 -0.9194606545474556
0.43631084022704064 -0.2779122463766969 -0.8558023334942666
0.13973067582638848 -0.27875133656044093 -0.9501436894485321
0.2813964933585256 -0.26714087862108377 -0.921657075324158
0.3221704900537198 -0.262804901572641 -0.9094722420436705
0.25388732891681154 -0.256289449599475 -0.9326612151470035
0.35621793780140654 -0.2312999024018882 -0.9053226695147926
0.4330117115833006 -0.2366333095391337 -0.869773266114944
0.20524661522563356 -0.23842541099563788 -0.9492244994362409
0.347937616472763 -0.2411286095611483 -0.9059781502301035
0.1560241120369778 -0.26214481117512567 -0.9523321765208979
0.28053204331252934 -0.22987357801802275 -0.9319119651577016
0.14976074968700023 -0.268583274644546 -0.9515433476381411
0.24040670289436744 -0.2504922515472271 -0.9377943533196711
0.23071157503461318 -0.24877468535084146 -0.940682372043634
0.33923805434903925 -0.24250308998802728 -0.9089058223092957
0.33901365354411195 -0.2530621622254522 -0.9061066630151507
0.2287394134314098 -0.2540200523202645 -0.9397617218009386
0.3711029737452178 -0.30875570039844086 -0.8757582430950476
0.2645362812981372 -0.3274999068887214 -0.9070635958216114
0.521829385913496 -0.26777934135716425 -0.809931056534732
0.2737280983306763 -0.3114938437436628 -0.9099695123981189
0.37369161457742217 -0.31382567622805857 -0.8728505153429889
0.14977765164970586 -0.3362396760046303 -0.9297900490683909
0.3212659901289815 -0.32830287409853065 -0.888259751674638
0.3361875172588902 -0.27970739779940845 -0.8993006865646145
0.4345295425178989 -0.24924684904504432 -0.8654825734353654
0.43000457473579823 -0.2620393690525112 -0.8639626350559654
0.3442176859472308 -0.2679655352816387 -0.8998381279887837
0.33859422555766 -0.27548657882516037 -0.8997005586895104
0.35116328749692194 -0.25843041494321484 -0.8999433682997126
0.42848039679498306 -0.26028327749814645 -0.8652497703075319
0.35884745781934424 -0.26644640851200624 -0.8945584460546148
0.42013284744336477 -0.24795071148818187 -0.8729311743612065
0.3433369908406316 -0.3130147714727569 -0.8855176246469394
0.3205517384471006 -0.3033903862964221 -0.8973298482060258
0.1592616328932988 -0.27806359607150244 -0.9472678442911194
0.15471572128506217 -0.2883530243940653 -0.9449421034698573
0.4132037963653596 -0.2634466109220301 -0.8716986324773895
0.24013805040071862 -0.27524419431520075 -0.9308997530591133
0.23300144340630116 -0.27815523002112125 -0.9318476245516095
0.4144444476536008 -0.2504352081223236 -0.8749388586306076
0.31410678647579593 -0.2907878242405939 -0.9037584677131775
0.28630717281909795 -0.27273720568089804 -0.9185002011048832
0.1328811469610185 -0.2815246648856025 -0.9503086150526961
0.3027072747759634 -0.28851643399565496 -0.9083647797620406
0.41109247567477275 -0.2830094846556495 -0.8665498300954942
0.33219067897491855 -0.2907001302517294 -0.8972974908433715
0.22700294937796675 -0.30473514310707156 -0.9249898126623973
0.3445795097973808 -0.29094879855969824 -0.8925322168103879
0.22946718414498676 -0.29513267551345135 -0.9274920567017503
0.2248378427129174 -0.30046824727249366 -0.9269124968761598
0.3195986756931492 -0.2169247482237714 -0.9223883889681389
0.24869398313268964 -0.2068944958959661 -0.9462272297506301
0.39571028031152783 -0.2186055759375517 -0.8919781254183219
0.28828860498268644 -0.2186437426516317 -0.9322470670570242
0.2396973656649844 -0.20425938720929115 -0.9491171032228592
0.311575008233955 -0.19686787409542336 -0.92960424611399
0.1492558168345352 -0.23664825350858643 -0.9600626569408851
0.39975520642516316 -0.22454750732368503 -0.8886924056672786
0.1646590511396092 -0.2506508224661015 -0.9539714681660404
0.36032625838973825 -0.2440248352931819 -0.9003426388186817
0.340756852894634 -0.24349447283900433 -0.9080722487237457
0.3062341921173532 -0.23560263136370166 -0.9223405117811598
0.3980880481766305 -0.22875711564875822 -0.8883670907563952
0.265905888938466 -0.23038246910041055 -0.9360651559368304
0.3838049300987558 -0.22656046180797787 -0.895189439603286
0.292113162159041 -0.23333141976825877 -0.9274838807453069
0.2893635940791252 -0.23816278993559953 -0.9271176818029645
0.376022352220558 -0.20875485658263015 -0.9027893444672928
0.35742372731275157 -0.2353931103446118 -0.9037911057075907
0.28440027123383216 -0.22302521708640397 -0.932403473966976
0.3563730439729156 -0.2140894763189078 -0.9094855412039129
0.30211784172358197 -0.19779744569422625 -0.9325239837071884
0.26711138924532873 -0.20818429315722037 -0.9409095630389028
0.3474397232014851 -0.22998911913061096 -0.909060308133185
0.3202004650873302 -0.21110252514582659 -0.9235298511877748
0.30021655849329887 -0.20752178824883755 -0.9310234827373821
0.2955328980755888 -0.21410698588281163 -0.9310308828128212
0.17570911235819503 -0.22762804314053137 -0.9577639488988441
0.49823253758337716 -0.19948890931435018 -0.8437822666741698
0.35884030137274947 -0.23861494040013248 -0.9023838143099397
0.1862421949313911 -0.24466145563784053 -0.9515537908874678
0.2684259565458008 -0.2347420574007205 -0.9342610300872817
0.18766496203679497 -0.23728803802295653 -0.9531402042905044
0.12460879750776474 -0.2519601005432608 -0.9596815905902848
0.26423349452237566 -0.24298601161708683 -0.9333479836218187
0.35176381072357954 -0.22544258793579058 -0.908536108809132
0.3788625204666364 -0.22165069965484024 -0.8985177560450253
0.4347853736188373 -0.21929388783054152 -0.8734253658139853
0.5115284153860181 -0.2145340506114633 -0.8320539774443168
0.29113940260616206 -0.24542791413388892 -0.9246637157442784
0.3432956072144605 -0.23185428061382338 -0.9101602708470093
0.36401771702946856 -0.22537470743486973 -0.9037130866250088
0.35665421914971973 -0.20907984771905164 -0.910540161245226
0.2797031372265683 -0.2384734660863555 -0.9299981510725575
0.17880477577502504 -0.23594292165563235 -0.9551752665771068
0.3381322118132467 -0.23419743700579193 -0.9114922752465869
0.23170216251281078 -0.24082835184804258 -0.9425050731073241
0.33160675800023454 -0.2524901731899534 -0.9090025690233671
0.36477401104566065 -0.23769446754979925 -0.9002451116012116
0.3718618847278007 -0.2030309572872172 -0.9058129879118119
0.3057514445206436 -0.2193115390804576 -0.9265087711401877
0.3672524349553376 -0.21404178373027985 -0.905158419193533
0.3583438393680163 -0.1935755123124157 -0.9133007247451276
0.32903315899737856 -0.199579003245831 -0.9229872164573064
0.37744803869295324 -0.1973379565587488 -0.9047600283987243
0.28997985127318426 -0.1909921365612191 -0.9377812589444101
0.3002444213742545 -0.21300586495145526 -0.9297751281519213
0.2767172966041109 -0.2103593053201601 -0.937644122482156
0.2684135110601971 -0.20776254049589613 -0.9406321883962023
0.3608349421348751 -0.2435212786654996 -0.9002752531152023
0.13217734742908707 -0.22139523371928568 -0.9661849198331516
0.28967482688106694 -0.18970417885663968 -0.938136887237546
0.34947416643696017 -0.19880998438409733 -0.9156103959121407
0.21923019288510065 -0.2031920349791953 -0.9542804197135007
0.3443063232141139 -0.18893136229016183 -0.9196510730369218
0.29897999822173815 -0.1987872736597724 -0.9333244776037134
0.2893715195471059 -0.19179371674936302 -0.9378055736081249
0.2792754992459323 -0.19516672804955854 -0.9401676147280149
0.35528002912273926 -0.19419708152043816 -0.9143651319005389
0.35183364188252136 -0.19821290609691974 -0.9148359045732166
0.33284520763012415 -0.2131761048488597 -0.9185695488525231
0.165614368016422 -0.22632607804803498 -0.9598689428780973
0.25990359368228666 -0.2171179974689107 -0.9409090801805045
0.4860590335130649 -0.1895150147078482 -0.853129928639612
0.3091209618527952 -0.21504570743286336 -0.9263906166719859
0.11623511295705852 -0.2295186146026585 -0.9663387625810818
0.27810907562209813 -0.21038618782672677 -0.9372262235065553
0.35812282559605646 -0.2006244482404314 -0.9118650517238387
0.17192437195329713 -0.21758131937300332 -0.9607811300126411
0.38861836519852755 -0.21222555386314096 -0.8966248270697768
0.3622177771922029 -0.2234827220701015 -0.9049053844585507
0.3549823730148417 -0.25506349918788535 -0.899405429286917
0.22010386607846302 -0.2909904207100285 -0.9310632970922625
0.39786436046458346 -0.28965026428961976 -0.8705209216722258
0.39799074949195773 -0.2805391165008025 -0.8734421374262745
0.44673304412487813 -0.2809217286180911 -0.8494189600410055
0.35196228240706284 -0.2681406002770972 -0.896784907458778
0.35004680717936604 -0.28204377656392526 -0.893262862143664
0.2688249580877784 -0.27338289469353866 -0.9235772489608468
0.19649108097926138 -0.29556181016075417 -0.9348981075337033
0.2699462724862578 -0.2760855111510295 -0.9224455542216299
0.17805809867993908 -0.29863485741916784 -0.9376100124405234
0.3848853995843101 -0.2417217378510502 -0.8907490278619978
0.29412744419384856 -0.20856109935603198 -0.9327332493309102
0.2652736490759781 -0.2326987632691667 -0.9356715110971988
0.37558050090282885 -0.20676847091173442 -0.9034301781423972
0.2729319707009971 -0.2019072794810585 -0.9406070326453168
0.2741979399693655 -0.20811218718247185 -0.9388848743390663
0.2904263780421192 -0.21961852525530356 -0.9313539726130027
0.17569213032849473 -0.2452183385850843 -0.9534150417117438
0.4299497278470367 -0.22942837607469002 -0.8732158105394049
0.2860403102183454 -0.23628228806411491 -0.9286288931954355
0.2880909300719451 -0.2323642334274563 -0.928983573070026
0.38023405530905596 -0.22686717036749343 -0.8966344573975934
0.32216706035299114 -0.2566366731990268 -0.9112332320503067
0.2866256205336629 -0.23971451156700102 -0.9275681681676484
0.4121350729552231 -0.22849181510066907 -0.8820069002406924
0.4158057609742805 -0.23839811909962547 -0.8776513578582104
0.28638049744361527 -0.21786709174070404 -0.9330166885004765
0.2668884891917418 -0.23989486489083212 -0.9333921941691815
0.34324093043862103 -0.21151161547378342 -0.9151221231023213
0.2185062080818958 -0.2382831012821538 -0.9462960428285803
0.3360085368287892 -0.21244632992864285 -0.9175864101424054
0.23111443927664904 -0.21235965237322907 -0.9494680057810067
0.3113083363665695 -0.2408771818857252 -0.9192743349813863
0.3680152080419743 -0.22098725197198874 -0.9031774139756215
0.2704618413742778 -0.22242739838009157 -0.9366837485567363
0.26877352034728375 -0.21464449491942722 -0.9389827131320961
0.1846837275730062 -0.23288994123854276 -0.9548058420640543
0.29580091023655364 -0.22765697907117693 -0.9277252402427197
0.1421519188014448 -0.21884330072457606 -0.9653499063598858
0.24562209464715268 -0.21524923713324426 -0.945165357244277
0.3687233772020474 -0.20960243171777532 -0.9055991893341734
0.2603418177683744 -0.21935162457450272 -0.9402696436222884
0.3074663112198219 -0.22242496182462346 -0.9251981430062376
0.2541938591775542 -0.20135713563326055 -0.9459602454046315
0.13580821625921685 -0.2191711568634552 -0.9661884559420201
0.27300820918883817 -0.22770160087334634 -0.9346756114691444
0.35300895846346736 -0.21429881027549705 -0.910747327835248
0.2729033974552551 -0.2300503524547092 -0.9341309174804372
0.289740091856784 -0.23823567493936995 -0.92698136030721
0.3719693978679533 -0.22703730615238313 -0.9000515700029756
0.3644679540847282 -0.22576464805730867 -0.9034342444986531
0.23632185767782324 -0.24765314973385305 -0.9395849599746712
0.3701690419088168 -0.23859609895797465 -0.8978010815176963
0.3077997709029946 -0.2522207826694231 -0.9174115640331157
0.395917725549376 -0.22874686047674617 -0.8893390964181441
0.23669748593003767 -0.2374374703644195 -0.9421240617993711
0.07383495596320569 -0.2507797522060256 -0.9652242823102805
0.2814219006477319 -0.25197250127245685 -0.9259112119627454
0.27597779237939485 -0.2429200214030777 -0.9299602794286023
0.3872366370580251 -0.2355611619215256 -0.8913802364390699
0.3429987590062471 -0.24307650786644547 -0.907339882647968
0.13240533827588835 -0.23651277144461058 -0.9625645616474965
0.31253906269023146 -0.21886319969698761 -0.9243474639501686
0.29458521229036316 -0.23409304847008863 -0.9265095775855868
0.17900213702410586 -0.24847645722422104 -0.9519546654889103
0.287000637822382 -0.2549141525204633 -0.9233901714520899
0.2088851787830159 -0.20903367692877975 -0.9553386331528847
0.2019543944123596 -0.2005857618927637 -0.9586343279391975
0.16385941847763225 -0.2101033971565764 -0.9638499123200863
0.29801850170866995 -0.20309936355399982 -0.9327033939915088
