29540
0.32236886326698105 0.005516610707254625 -0.9465980577849603
0.3087385468924983 0.01415682484549682 -0.9510415837243935
0.4135988215418456 -0.0333301035042869 -0.9098489539586173
0.4116060617992039 -0.02983067340113429 -0.9108735262453207
0.4080043770727226 -0.02917926906449247 -0.9125135607465578
0.41196666794524855 -0.03559597605776521 -0.9105033723114837
0.4100925681814353 -0.033718999787938554 -0.911420383015245
0.41395602983696544 -0.04211660590922171 -0.9093220534377822
0.40848441418352344 -0.036047688949165456 -0.9120532043091389
0.4085385002554161 -0.03962559724493931 -0.9118805326642505
0.39894556691047295 -0.010796939974038152 -0.9169110429750961
0.39733052135407676 -0.012788604281607618 -0.9175864582702962
0.39750476312259425 -0.015657892319996466 -0.9174665082186628
0.3993661946559406 -0.01732043374158971 -0.9166278662254583
0.39285410624096045 -0.01300965605730969 -0.9195087819367941
0.3993401333178295 -0.02132037818456253 -0.9165549080092067
0.39758799306665116 -0.01962642132841779 -0.9173541253818354
0.3954826916946874 -0.017707361991263524 -0.9183027223640553
0.3954120692579251 -0.014191350600252624 -0.9183941969836845
0.3929239183185034 -0.016735343820780398 -0.9194186873674225
0.391095714246038 -0.018872845818005253 -0.9201564855985699
0.39115889280864646 -0.014130204924206134 -0.9202146803249304
0.3872420223852923 -0.014583610965609143 -0.9218627524692342
0.38731749529361936 -0.017334106017309434 -0.921783427171512
0.3853109465082844 -0.012326763124784913 -0.9227044626594993
0.4080129508140906 -0.03220132011329913 -0.9124080813709069
0.40426052602639395 -0.029718159615295198 -0.9141609585220445
0.4047360548223691 -0.02596166702559832 -0.9140649417694983
0.400355590063985 -0.03006402116270057 -0.91586656022373
0.3967060438239472 -0.03207799967962908 -0.9173850427874363
0.40456107761347593 -0.040095824104646356 -0.9136315774805468
0.40408831544001234 -0.03628975962716326 -0.9139998285946535
0.4025849978599274 -0.04252542079874109 -0.9143942848049808
0.40063504897113605 -0.04056769799950124 -0.915339182715848
0.4023836896418934 -0.034022441790530066 -0.914838696035966
0.40059040756616077 -0.035438747103186 -0.915571635957413
0.3988037796012297 -0.0378394227300654 -0.916255271997509
0.3935522218941522 -0.03219504835991244 -0.9187383346216044
0.3959091321410745 -0.030091789240985305 -0.9177965151969022
0.397512584978317 -0.042718697496918326 -0.9166017988570736
0.3955804412743508 -0.03781273600985294 -0.9176526093662237
0.39198974688851995 -0.03819735673372693 -0.9191762618088168
0.39357354970570346 -0.03604175540728907 -0.9185863339061895
0.3898865570203896 -0.036472145664624436 -0.9201403454068325
0.3937342894535496 -0.04186485534115105 -0.9182704629877698
0.39000167688875814 -0.04049271072839464 -0.9199233839846791
0.3988360767662911 -0.027687953860702535 -0.9166041463361819
0.39769264643071245 -0.02336452260074692 -0.9172211609304354
0.3984795590081532 -0.03379915450598743 -0.9165542309145424
0.38828063754595454 -0.038569269074616316 -0.9207337063396545
0.38634698791418204 -0.042818647917704414 -0.921359087609244
0.38434872780834245 -0.0400421559600495 -0.9223191861704818
0.38233212579206605 -0.03424829270400083 -0.9233900584445237
0.376173753817792 -0.04271898654119241 -0.9255638255288096
0.3737186801320275 -0.04107015517013769 -0.9266323923081236
0.38663144015144124 -0.026134210956608506 -0.9218639446816965
0.38392244572882245 -0.0321010655324247 -0.922807172304855
0.3803596501861207 -0.03239388158015375 -0.9242711576947875
0.3803737669501323 -0.0366196576660557 -0.9241075684619119
0.378428455426083 -0.03448774212342712 -0.9249878376319643
0.3823847009616482 -0.03826222912854075 -0.9232106705907304
0.38049303689887015 -0.04212783162191836 -0.9238237357171065
0.3725034549690817 -0.032057521698136485 -0.9274769492222817
0.3768231683479075 -0.036569052084634776 -0.9255630741477731
0.37400049497974924 -0.039053082572275404 -0.9266058959970553
0.3672197606326203 -0.036741012803611556 -0.9294082770123612
0.3711009735478378 -0.03824448479060079 -0.9278046275024439
0.40826292537572245 -0.05898887294951624 -0.910956473511113
0.40598284309440025 -0.06165263044603025 -0.9117987081982913
0.4228903941296997 -0.06879150506690436 -0.9035659596196933
0.42377635045888196 -0.07649633458978058 -0.9025308391329789
0.420342322614855 -0.07461997648323726 -0.9042920938106174
0.42011743704620236 -0.07123052320103886 -0.9046698578234142
0.4170269872131256 -0.06645945532952077 -0.9064610486574958
0.4147447657826046 -0.07412424794853834 -0.9069136536197898
0.4129383433170871 -0.07628195339864233 -0.9075588070225682
0.42417052729658683 -0.08291726342076064 -0.9017782938171376
0.42208082812502556 -0.07851058455024959 -0.9031521813309598
0.4213533271299828 -0.08334397189044103 -0.903058777747063
0.4214491447864141 -0.08032847679105223 -0.9032873043363498
0.41972726817373884 -0.07889092971751378 -0.9042152628438189
0.4198192099428329 -0.08253470016884243 -0.9038472516033973
0.41794881381215304 -0.08079777571821074 -0.9048704373953235
0.4179381185764086 -0.08456549456209878 -0.9045310421264046
0.416041131806347 -0.08309221653668335 -0.9055415286977814
0.4143400410099093 -0.08511699286788135 -0.9061332285823293
0.4072261624787069 -0.0752004117742 -0.9102262085118493
0.41293174782365055 -0.06870089832129372 -0.9081671422206116
0.4086241836097722 -0.07130930324178673 -0.9099127759518592
0.4111215935815061 -0.07085543883371696 -0.9088226130982242
0.4113449479679573 -0.07475469965481372 -0.9084090866238389
0.4087961482921113 -0.07696225467023195 -0.9093747964935077
0.4143497807104986 -0.081340898277371 -0.9064755471012951
0.40515209929238766 -0.07749661925490517 -0.910958863200217
0.4133369834229751 -0.06689593239125947 -0.9081175432532396
0.4134395301310381 -0.07050977635206375 -0.9077974038097975
0.4151270609749505 -0.06881883335313577 -0.9071568174368824
0.4095309260058683 -0.06621337222972501 -0.9098902186432956
0.4013959035384187 -0.06543378734800397 -0.9135643097756571
0.3919571969365708 -0.06439690003524662 -0.9177268629801989
0.38683908764987013 -0.06326827831278668 -0.9199742633495526
0.37911422963514985 -0.049756787857070814 -0.9240111811825079
0.38106825155337426 -0.051197122085836974 -0.9231282913810963
0.3797447482832068 -0.061007280055958936 -0.9230774820845202
0.4047176522438447 -0.07588730807664251 -0.9112874071527112
0.40083889945384016 -0.07098173395443304 -0.913394640957268
0.3989894354596124 -0.06932431563553162 -0.9143312144148231
0.4016773399401823 -0.07491884313818016 -0.9127116091742321
0.39721643083182634 -0.06650054228900394 -0.9153123974646543
0.4094682453962712 -0.04849163751429328 -0.9110347507660076
0.40952870651940143 -0.05226323350649075 -0.9107989860336868
0.40756948476376076 -0.05071947949197544 -0.9117645800805522
0.40126078599868514 -0.0465080738405823 -0.914782367936416
0.40380307177322583 -0.04616156577704647 -0.9136805727777726
0.40443067677238337 -0.04416095499648229 -0.9135018542615174
0.40391403899005746 -0.04921518164339021 -0.9134721205392897
0.40002628071039875 -0.044621163922209064 -0.9154168047786935
0.3993703042911076 -0.05046904287970695 -0.9153994951720447
0.40880745076639013 -0.05518433439179407 -0.9109506888057225
0.41072167681130256 -0.05685597817487515 -0.9099863196461198
0.40447120410349197 -0.058323909293253505 -0.9126890854260413
0.40058281234592646 -0.05507535997005624 -0.9146038022975834
0.4007568546692002 -0.05888191175876145 -0.9142903608281578
0.40266653422495413 -0.060465143748991076 -0.9133474851373259
0.39880938482759465 -0.04655896460642425 -0.9158511546033085
0.39323700834932973 -0.04726715252833008 -0.9182213630472409
0.3949615420369539 -0.048931788874926586 -0.9173936234514012
0.39202519579225514 -0.04397577292432018 -0.9189028116508038
0.3932615625004676 -0.053193990365037254 -0.9178865631703818
0.3905039239010823 -0.04952268347400053 -0.9192682901304666
0.39734988873057264 -0.06141594712390133 -0.9156097134503739
0.3936015427958979 -0.06179106593744722 -0.917202098601504
0.38770478989392904 -0.04857636552947637 -0.9205027607808959
0.38458025319525035 -0.0449693518863395 -0.9219955456742727
0.3891442594747661 -0.057290822293755025 -0.9193935539249454
0.390868789773726 -0.05539614943781612 -0.918777914301539
0.3871385887615831 -0.05571110738115366 -0.9203368870180394
0.38450580660268435 -0.0509562959437914 -0.9217151081502938
0.38265931688038757 -0.053027047380837224 -0.9223665103692271
0.3770741043886687 -0.04834088807094732 -0.9249206875943449
0.37509403497973914 -0.05067160926907924 -0.9256008064693441
0.3752861343738826 -0.054047514213196146 -0.9253319315543382
0.38274445964936876 -0.057893459701023456 -0.9220385165119508
0.38308629772629155 -0.0637678024010366 -0.9215088474188979
0.37981668889204245 -0.04447784652497832 -0.9239918852498574
0.375078549222521 -0.04485360627832809 -0.9259072501697768
0.36487887556943854 -0.0426966077649626 -0.9300754839520001
0.3519502853240154 -0.041033735760538904 -0.9351188315876643
0.3656600726580906 -0.03460976038641531 -0.9301047660073971
0.3629229148513164 -0.028466188757507227 -0.9313842568851194
0.35689608640698656 -0.023689951833657907 -0.9338436537716021
0.3655864539243312 -0.03870126220951921 -0.9299724495975259
0.36375500373443304 -0.036828735708517 -0.9307663194831853
0.3620438504915054 -0.03900354515744516 -0.9313447126528586
0.34801695896582163 -0.030187106668038706 -0.9370020997111982
0.350588910150416 -0.030181721787321945 -0.9360429903319059
0.35820287170219606 -0.04141972014640406 -0.9327245624981115
0.34352658750755294 -0.006815702718361716 -0.9391182193269763
0.3444088684336965 -0.018093756044954952 -0.9386453789032397
0.344487916426398 -0.022072083774145646 -0.938531245379751
0.3318570745681374 -0.019950457209395783 -0.9431186888807865
0.32800572039046416 -0.022037029579210807 -0.9444186660154795
0.345476196339001 -0.03646293999544311 -0.9377188553985809
0.34391141925343677 -0.031004466078079048 -0.9384900952009563
0.3380357517463229 -0.02627871918209122 -0.9407663150110379
0.33814270568050453 -0.03226115357327912 -0.9405417207998746
0.33152692475323375 -0.028548029783334414 -0.9430137369938751
0.37655531930851854 -0.05955937579648984 -0.9244775671995467
0.3797803229923909 -0.06675366663772994 -0.9226650823880864
0.3785642978763597 -0.06411634909562722 -0.9233515940052448
0.37497791658934515 -0.06162517586448581 -0.9249831889120934
0.37213024158761604 -0.06584945114790544 -0.9258417429990194
0.3744209043403185 -0.05577853800414343 -0.9255796784129925
0.37958916826303113 -0.055219361507710084 -0.9235057582127255
0.37740962562069064 -0.05182093818613669 -0.9245953519536851
0.3817186113156926 -0.05700143620848579 -0.9225192345124243
0.37461165639239274 -0.06448345532851738 -0.9249367496666153
0.3703080575324399 -0.04947020121421526 -0.9275907727647877
0.3706348982215303 -0.054985188938478355 -0.9271496110217141
0.37231373943066204 -0.05312439515053835 -0.9265852783586876
0.36864134262238285 -0.0535792332447057 -0.928026306887082
0.3791391426397088 -0.06986239232099266 -0.9226986272112983
0.3698834916443482 -0.06919203012511659 -0.9264980656084233
0.37007581769594716 -0.07656333490856755 -0.9258412093357882
0.37347191148123254 -0.07043061753473366 -0.9249639233225427
0.37414599921420516 -0.07992446255605352 -0.9239192884430598
0.36324563916081937 -0.05489752594382427 -0.9300746568291682
0.36399592719691715 -0.05926303458305697 -0.9295132369773247
0.3512462736962706 -0.0563395373340539 -0.9345864923844498
0.34884475925658004 -0.06658823615119837 -0.9348119280077095
0.3555081009074596 -0.05371454746674628 -0.9331284678861824
0.35583865509068663 -0.048024751824933785 -0.9333126350561236
0.3570131438068892 -0.0514314314225588 -0.9326823805620799
0.35487042002309027 -0.06466349946478887 -0.9326765874779975
0.35434827034742405 -0.05782397711147102 -0.9333240010697256
0.35138792368080374 -0.05791462218509621 -0.9344369554060089
0.34756680129006196 -0.051429729415337376 -0.936243719110179
0.3437841503895157 -0.05377104482421653 -0.93750793739545
0.36619255892896385 -0.06927475595717122 -0.9279569052343605
0.3521511911177418 -0.07118269720681217 -0.9332323195285935
0.3610499996053967 -0.04511660600862255 -0.9314544485090003
0.3572279670025612 -0.04951353429766542 -0.932703913100278
0.3571789894958199 -0.045574607252845394 -0.9329234291390124
0.34231440181082873 -0.04989899508771378 -0.9382595273175387
0.3383664127167431 -0.05036404442703545 -0.939665703202024
0.3937790508154856 -0.005441938288006428 -0.9191890145375569
0.3899012816210142 -0.004377265107380683 -0.9208462576024679
0.3879846674616639 -0.0026199318882156866 -0.9216621039033575
0.38623104905527156 -0.006965384808173205 -0.9223757694996865
0.38422711335957627 -0.0029876784958154166 -0.9232337727447869
0.38819800768373036 -0.00873027502554722 -0.921534638051311
0.38495256139107714 -0.019454619735559887 -0.922731295258481
0.37746607855097614 -0.0075207313395602386 -0.9259928715403087
0.3834268005809719 -0.0148648106863941 -0.9234516370657954
0.38150087044909375 -0.01311244633444132 -0.9242754727881242
0.3835578699592519 -0.01773436951164993 -0.9233465506137692
0.3956226314568308 -0.026048239173319408 -0.9180436932494783
0.3919424905726917 -0.023669955207461124 -0.9196851729282974
0.37405153642937283 -0.0024769024303039826 -0.9274046112938927
0.3777538135390253 -0.015457332210727192 -0.9257770397010561
0.3738858086656381 -0.013353463313516174 -0.9273786104369545
0.374023274671119 -0.019012944456171615 -0.9272244053881452
0.3721743657414294 -0.021276933417893145 -0.9279189261941452
0.3698792941731147 -0.012552885873865584 -0.9289950122569207
0.36805736282437845 -0.014710236817150507 -0.9296867142234244
0.36601232606149897 -0.0129794870681534 -0.9305194839907968
0.3695184492793932 -0.0215272743546904 -0.9289739996905245
0.36577823518021296 -0.01975080630637704 -0.9304924439879655
0.36378897609792626 -0.022016821467600048 -0.9312211554953456
0.35993586532866817 -0.02029346964246096 -0.9327563175556483
0.35692860750954397 -0.017627795433500758 -0.9339653258924835
0.3682879177152235 -0.0029226865189687493 -0.9297071945341161
0.3643047917287421 -0.0020436439849568513 -0.9312775323407844
0.359965648532918 -0.006421156335298014 -0.9329434605738943
0.36047341143836986 -0.0025677234250152145 -0.9327659548045246
0.35602100086781313 -0.0028913343877904067 -0.9344734812323668
0.35611511357517 -0.006828556007452914 -0.9344171427720046
0.3581084024943655 -0.008522764466518966 -0.9336411165693068
0.3602198931361738 -0.013525751821797136 -0.9327693619682299
0.3575394126040612 -0.015707098011994627 -0.9337659532810053
0.3562474031404084 -0.01270817676006561 -0.9343052445529514
0.35961782601833325 -0.017465911503324105 -0.9329362042204203
0.3737921228101128 -0.026178308491899248 -0.9271430014240589
0.37164203772485727 -0.023320687357976034 -0.9280831543223201
0.3719765731246548 -0.029188400125479196 -0.927783092292888
0.369690540155357 -0.02556084112428887 -0.9288032880651637
0.3658764011355311 -0.028113992348840038 -0.9302387126573056
0.3627111677276756 -0.031163767531063525 -0.931380388669901
0.36589050533513373 -0.02393576897687687 -0.9303500508244659
0.3620595469051522 -0.02422297739112279 -0.9318401857942944
0.35459691292341006 -0.02057094736924572 -0.9347929532626565
0.35295771718904523 -0.016796389626470707 -0.9354884986851596
0.3505479097386273 -0.006278426662632599 -0.9365237553508834
0.34861941740589214 -0.019543409834982785 -0.937060594059743
0.34669974284538047 -0.017693975051279003 -0.9378092618213109
0.3447867164518885 -0.019703445838103517 -0.9384742374622919
0.35001959974454844 -0.017265803709493405 -0.9365832433996091
0.3570771056463365 -0.03121171852896872 -0.9335533028433372
0.35084106137534643 -0.024007865570947903 -0.9361272200100518
0.3528683306906717 -0.025861743958957916 -0.935315514355974
0.355158240336435 -0.029650715594334957 -0.9343358386500387
0.34907432975282504 -0.0263002984174392 -0.9367258972670552
0.3488255773412564 -0.02234642431482739 -0.9369212100880633
0.34947754129267594 -0.03283877619863125 -0.9363690847682885
0.33564548100115904 -0.002214107340066746 -0.9419857795169666
0.3402963485096291 -0.021640642234529554 -0.9400691877700759
0.33638683873519054 -0.019416137587143636 -0.9415237162849069
0.3314963069760319 -0.002620319158228421 -0.9434528776726273
0.3346295848908304 -0.007417172836559633 -0.9423205539851623
0.32987747733967554 -0.02519045025209999 -0.9436876025253847
0.32799997484491916 -0.027672760369069887 -0.9442723308639772
0.3258735735661354 -0.025605649695433903 -0.9450665398557455
0.3222848724094391 -0.0020514120347114675 -0.9466405087068139
0.2981171395240032 -0.0008008993822803292 -0.9545289569636982
0.2875841935965266 -0.0015755899229647583 -0.9577540650447954
0.2899465311714078 0.038866834245579414 -0.9562533023511054
0.2771451859601025 0.04711091736670408 -0.9596723958539226
0.2819996956324921 0.03855980558031406 -0.9586393028959278
0.27138329716804155 0.039608554517797975 -0.9616560031670438
0.3135743819468036 -0.00047031213323843154 -0.9495635238324909
0.30981557134457316 -0.0020299471950985808 -0.9507945051728165
0.3066107441827228 0.0067864084977467065 -0.9518107985368829
0.30805561815723903 0.0016831376547620544 -0.95136686045363
0.28947508737624783 0.0015450817839935218 -0.9571843012245836
0.2918015702893333 0.014371347817333669 -0.956370905004221
0.29271288742236445 0.005770077316999119 -0.956182969804743
0.29488532804917167 0.0018704006440579477 -0.9555308183950758
0.2840638167927386 0.008590654565701704 -0.9587668896260834
0.28595624141491066 0.010396569857519041 -0.9581862759041454
0.2820518169845194 0.010495182067665941 -0.9593417658421308
0.28001913224263086 0.008268442332556034 -0.9599588108036081
0.2864413580303948 0.007346911723082042 -0.9580696067081121
0.28222081357709655 0.006595202687286647 -0.9593268033810978
0.2801278668521009 0.004164414182093982 -0.9599536633960056
0.3025721946091418 0.0191715400316257 -0.9529336383517077
0.3010677302795172 0.02203612568165727 -0.9533481163506236
0.29890434055921533 0.024012957126365857 -0.9539809081343861
0.2947134380313316 0.03168745861239226 -0.9550601522471978
0.29469490423189154 0.027949631067615433 -0.9551825645094976
0.29263295532200406 0.029601388577839685 -0.9557665568818433
0.292802137383763 0.023586677447461256 -0.9558820936655783
0.2998576561129332 0.012593202076181127 -0.9539008320218232
0.285646275725474 0.020393641005514548 -0.9581181057524717
0.2830963884890286 0.01885640207630282 -0.9589060803463527
0.28341151234454065 0.021499643430282208 -0.9587573624243786
0.28610672939757514 0.02277339894602798 -0.957927091011559
0.2730846212588068 0.02987945841008729 -0.9615258746373153
0.2872989956712059 0.01680971248558291 -0.9576934377202699
0.28746023298729856 0.01316114286859826 -0.9577021451209559
0.2852387906985877 0.015080714142638202 -0.9583378341387526
0.28332902971286344 0.012717888046802642 -0.9589384319368979
0.2789845641484329 0.016440587765657776 -0.9601548417004564
0.2664274782343194 0.039258026348014584 -0.9630551418319514
0.25604701344844727 0.037658119970259196 -0.9659305321318072
0.24974481220221684 0.0372676589567377 -0.9675942591675313
0.2470043944082601 0.04759682459235843 -0.9678447041916038
0.2448101936674121 0.049522622238907306 -0.9683054677957296
0.26716822742516294 0.019735629386113757 -0.9634477895491953
0.28083764309090475 -0.001990614431106396 -0.9597532264479929
0.2770066109049699 -0.00031439936174525255 -0.9608679610997465
0.2719913193733888 0.014787366920152308 -0.9621860817768526
0.27437812703431014 0.011920304144740714 -0.961547996594159
0.26801528579841016 -0.0008567674761214553 -0.9634142787647941
0.27551737533810194 0.014385624392346702 -0.9611884465065349
0.2778604042779018 0.012353621548856691 -0.960542026029652
0.27157609608681565 0.009619043184981933 -0.9623688991454629
0.27961560281794806 0.0020468387437189827 -0.9601098505441515
0.2732754887531557 0.0035571668483104562 -0.961929235344647
0.277982305936413 0.0060378429341187935 -0.9605672189071296
0.2759412893552377 0.0038033659148890256 -0.9611669674082056
0.26596430739920046 0.008427201214839244 -0.9639460407457195
0.2670229148035295 0.01698435075058199 -0.9635404998231306
0.27065524572439875 0.001192032950858578 -0.9626756032118553
0.2690127798717094 0.005256182957422721 -0.9631222647236505
0.2609983619130196 0.019284416358920167 -0.9651466035605246
0.26381451701628883 -0.001105513194973274 -0.9645727958283077
0.26389648047737385 0.010358299612324163 -0.964495387869116
0.253154169661887 0.011093411835594534 -0.9673623429701232
0.2581535438439045 0.01003020431892355 -0.9660518323579507
0.2577320383835709 0.003832316078217093 -0.9662088334020376
0.26012684146216086 -0.00021511470210445926 -0.9655744301070659
0.25393948813224687 -0.00020910509611678024 -0.9672200849042535
0.2556724757623594 0.0014414098554638385 -0.9667623841850563
0.26066752028600565 0.004109259812798055 -0.9654198868118141
0.25334142551100897 0.003546177496297276 -0.9673704289181134
0.2518114585991888 0.007785696494185775 -0.9677449933986997
0.2513558511079002 0.0015108526292197473 -0.9678935651393473
0.2488841206334343 0.010742249508224349 -0.968473695343361
0.24245554978715406 0.010213848713034006 -0.9701087483740553
0.2513007470931742 0.005226597203740514 -0.9678949411956251
0.2490278887432829 0.0031450189700224585 -0.9684912077472574
0.2630557944094777 0.021880773020967324 -0.9645324674678419
0.25850285651971394 0.027699561453853036 -0.9656132804940145
0.2609612847755742 0.023783086289360135 -0.9650562536219506
0.26383161375892383 0.03451517560843215 -0.9639510268857444
0.2617859520035654 0.03232214279506041 -0.9645845709001999
0.2618831208882208 0.028207317773594198 -0.9646872955615541
0.25966058070627657 0.030042418155751233 -0.9652325294656383
0.25966916493740155 0.03411431823197213 -0.9650948855279881
0.26147353461034123 0.025966881787426108 -0.9648612914552085
0.269526327332118 0.007382120499276822 -0.9629647258190688
0.2649684022363042 0.014750183752094607 -0.964144272344974
0.26719485264692056 0.01079634298089426 -0.9635820409789866
0.26279446807614815 0.016644406366229027 -0.9647082622665208
0.2607332966138082 0.01440618000185067 -0.9653033771901196
0.25866821161767906 0.012164144545148114 -0.9658896364937334
0.25818955078303024 0.01702275129763053 -0.9659442953942614
0.2631321449072327 0.004246686906921451 -0.9647504547637352
0.26095855215001995 0.006133970980355008 -0.9653305177294343
0.2589426178893009 0.0077164985189405785 -0.9658618826163722
0.2524678776419389 0.02862112562968013 -0.9671818866824715
0.24896838272428315 0.0326598001075508 -0.9679607852907006
0.24967286038671813 0.03456284808402056 -0.9677132180138056
0.2483719792802029 0.02633495482468424 -0.9683066818228697
0.25452438629950164 0.025361076258072872 -0.9667337547587208
0.25031839551246143 0.022958784740979947 -0.9678913136666144
0.2546454542222136 0.021217481694610803 -0.9668016917209555
0.2526250572595074 0.018510993844073387 -0.9673871632141576
0.24368269941149817 0.03418114048957592 -0.9692524911716025
0.24601473715334504 0.032405939539072046 -0.9687242147205574
0.23940447339756152 0.03325456546510014 -0.970350262530476
0.2416299095903519 0.032005692617670445 -0.969840513915263
0.24588529230228875 0.02808508512222951 -0.9688919707702687
0.24377871118160493 0.030077778364386274 -0.969364362468158
0.23995293118426 0.03589656444302005 -0.9701206252200135
0.24401399560630804 0.023838176421165248 -0.9694786801643233
0.24163412794203107 0.02779982193789754 -0.9699691325572766
0.23951279567096617 0.025673750831215366 -0.9705536972409795
0.2373313989239648 0.02755140767307744 -0.9710379637377861
0.23770261041071977 0.02144827061357814 -0.9711011485378938
0.2536398480625886 0.035017488578644694 -0.966664679694273
0.25153931906105415 0.032721105319642806 -0.9672938024369651
0.24835183848622822 0.018171870854265932 -0.9684994307846372
0.2459298310360438 0.02209022844352515 -0.9690358816957687
0.23553995597623942 0.03551450918366338 -0.9712155521696277
0.24169679530210542 0.019674143683280108 -0.9701523525771723
0.23532510543355895 0.023230499587456144 -0.9716390475076646
0.23554266462653814 0.01922856551291183 -0.9716737700529668
0.25021364654985834 0.013097467369105005 -0.9681020542425979
0.24093781293110453 0.012518250601629446 -0.9704598207560429
0.24573179217261065 0.014845564723105177 -0.9692241719662634
0.24152643984622602 0.014672140170575084 -0.9702833128308569
0.2425556153041581 0.00183366228896324 -0.9701357694503545
0.2405241662843421 -0.00036211346463760894 -0.9706430828615948
0.32339382356375573 -0.0345807960976686 -0.9456323828116643
0.3189820819459205 -0.038764824453299984 -0.9469676445278112
0.32295839324815606 -0.0415850696363203 -0.945499105348023
0.3210879342700562 -0.04565584454677749 -0.9459482450562021
0.31895761754977703 -0.043888136859071836 -0.9467522747002035
0.3083487501473947 -0.03265298078498116 -0.9507128016011962
0.32654327553642964 -0.002943251062083666 -0.945177669263893
0.3281593123626043 -0.009172389260951382 -0.9445778596732767
0.3203035588443821 -0.010126204037616772 -0.947260835347589
0.3204650730352999 -0.022836951494638158 -0.9469850107635873
0.3107110867817594 -0.007189363542841107 -0.9504772136157431
0.3162433272259948 -0.021931991990951707 -0.948424559842448
0.30887097048258755 -0.01534010994450259 -0.9509802335590553
0.3142517285111767 -0.018159555442693053 -0.9491659926871915
0.31252100799761895 -0.022505336308577182 -0.949644212006681
0.31008991110313877 -0.018541397924144734 -0.950526413938648
0.3312388356366181 -0.03279483243223478 -0.9429768463392085
0.32177561475400207 -0.030687891606590505 -0.9463185019106549
0.3178158542011185 -0.03514051087923963 -0.9475010434366601
0.32905085174016746 -0.03132703656184062 -0.9437924314961016
0.3272029644198808 -0.0331801865138161 -0.9443713757297765
0.3145684320533491 -0.024296132264971723 -0.9489238112264127
0.30485443658690475 -0.017827170490647998 -0.9522320959123245
0.3018686405071092 -0.019928885624972217 -0.9531412085290072
0.2981982583370753 -0.020219825214706895 -0.954289765947965
0.2989849747732798 -0.02243256852127673 -0.9539941114752017
0.30662134201790975 -0.009525596391796473 -0.9517839122576705
0.30879630711362394 -0.01126659395891634 -0.9510614620378399
0.3057793845821715 -0.01988957172161684 -0.9518946227925018
0.30820742946428165 -0.017364942413867785 -0.9511606800104716
0.3012295222806506 -0.01609772875563381 -0.9534157739598611
0.2950391865229421 -0.013436596264894053 -0.9553906720795922
0.2910961054615031 -0.019567024527156793 -0.9564936951889956
0.3136957071127166 -0.03153934757313906 -0.9489996169091501
0.315758317254283 -0.033342017500681144 -0.9482536553864308
0.3115743075964357 -0.029218705496148547 -0.9497724559571787
0.3132923526775247 -0.0381728175258707 -0.9488892125827537
0.30922947763235 -0.03861187032675136 -0.9502032696392357
0.3127456412716896 -0.04534026645497235 -0.9487541431284249
0.3105789973954586 -0.04345582733636055 -0.9495537254138621
0.30185022125530003 -0.03118793255760345 -0.9528450854104821
0.3043187101811705 -0.023805057937845674 -0.9522727770183523
0.30135348371541926 -0.024153971664129473 -0.9532065167136811
0.2993122460338184 -0.026451238554417108 -0.9537885045192819
0.29518921706823825 -0.02686800109837441 -0.9550609596479265
0.2978536571098757 -0.0335013504780165 -0.9540235104348433
0.2954890992938295 -0.03153037047854713 -0.9548256531618781
0.30639571998604065 -0.04411393061703174 -0.9508814983475867
0.2992355673353936 -0.03741333968260145 -0.9534454977896007
0.30246779071581686 -0.041982597267608564 -0.9522345809232926
0.30042113918797714 -0.0443305533360018 -0.9527759134077235
0.29560421338878856 -0.035888610068664305 -0.9546361383763633
0.2968285118853384 -0.04045895648853294 -0.9540733238969605
0.29292863013260045 -0.029160463465592337 -0.9556895338022229
0.3488099574889083 -0.0626442814185337 -0.9350974855928881
0.34079151325709833 -0.06017842731720339 -0.9382109045292348
0.33883906737750774 -0.06240461248223054 -0.9387724701756456
0.33879700715260963 -0.05843628932838499 -0.9390430171371086
0.3367486694980291 -0.0527125482543702 -0.9401179292236894
0.33679702634736336 -0.05668953069883711 -0.9398691718280364
0.33479160254426743 -0.054938183039707406 -0.9406893105112533
0.341272792081512 -0.05408667994504128 -0.9384069013159546
0.33932319824484486 -0.056308782001818866 -0.9389830074087397
0.3417918727629559 -0.052023549615200025 -0.9383346236810333
0.334920726254021 -0.06686571378516253 -0.9398707801849572
0.3326548860512454 -0.05369990308901494 -0.9415184794758218
0.3328300402348959 -0.0571668671923052 -0.941252417586619
0.330689623190645 -0.05593006643136657 -0.9420807825144362
0.328670855847283 -0.05417104836288544 -0.9428896892192005
0.3266981599249327 -0.056405011114064325 -0.9434441091145174
0.3291979005987968 -0.05203340451542308 -0.9428262125417808
0.3230988865819074 -0.048089757919261726 -0.9451425737277941
0.32519900321420064 -0.0525005909695513 -0.9441871087111592
0.33483848849620423 -0.058917395403456495 -0.9404317769729234
0.3328754891890669 -0.061148235284510355 -0.9409860796094327
0.3287199191988771 -0.058163219403608614 -0.9426347408357553
0.3267458276477025 -0.06039931085092234 -0.9431803048004934
0.32472109519828163 -0.05864193507157456 -0.9439901131814304
0.32476740147347666 -0.06263828785872641 -0.943717425840115
0.34280545165265963 -0.0720645268788999 -0.9366382045821836
0.3329549394267865 -0.06910052787755247 -0.9404074251931174
0.32139692491947314 -0.055158698593798 -0.9453367308116961
0.31942433997803327 -0.05733585244339361 -0.9458756213446815
0.32414412017665506 -0.06491589618873807 -0.9437777894064446
0.3133645224684031 -0.056564224677685515 -0.9479468152511312
0.3113107164937047 -0.05478753016220237 -0.9487275501085135
0.30930808501488516 -0.05703719482858723 -0.9492498443247228
0.30724625417684853 -0.05525683993346088 -0.9500244317568171
0.32014206728392675 -0.06535432811630645 -0.9451126221523232
0.316317538176732 -0.0657630755346948 -0.9463711919421628
0.32269104700800816 -0.05688001193767451 -0.9447937089242527
0.3169767073501112 -0.05622648920655192 -0.9467652026289239
0.31908363460228795 -0.048061722679667386 -0.9465071077081547
0.3169430696149258 -0.04601845012576854 -0.9473275003245132
0.3170318388707298 -0.05006082148811223 -0.9470927764977299
0.3190185583051056 -0.05171724962201382 -0.946336349058022
0.31496995673093026 -0.04830645183294343 -0.9478715171732018
0.3124008767086453 -0.052492626768389276 -0.948498927973366
0.315089541163497 -0.052148932316658764 -0.9476281284911342
0.31614941226825893 -0.06168600468999624 -0.9467018463844993
0.31819021406948783 -0.0634484973724287 -0.9459013034411119
0.32070672349252377 -0.05912068282321461 -0.9453316573400082
0.3227397139900346 -0.060881766657758456 -0.9445276531167633
0.31871815275096566 -0.061364227487699416 -0.9458610736740624
0.32075406822264274 -0.0631244507806751 -0.9450566815975974
0.3166769784287444 -0.059599457399047484 -0.9466591762672455
0.31047541497354886 -0.06084187270073791 -0.948632322463909
0.3093859845750066 -0.06307721268403098 -0.9488422301882266
0.3073013356558479 -0.05928964985221174 -0.9497634581960575
0.30509534509349084 -0.06125079976373491 -0.9503500249542727
0.3053848208652936 -0.06559311283531455 -0.9499671861352088
0.3027588941256556 -0.059207519277793726 -0.9512263251659827
0.32935448744918366 -0.07358547214892758 -0.9413345844521517
0.3295430741383146 -0.07606882484499342 -0.9410711429930104
0.3253973992875325 -0.07668975957821965 -0.9424623140013318
0.3232593782833907 -0.07786354877415749 -0.9431016075291836
0.32678952108949866 -0.08592768698953 -0.9411827885776097
0.32054200829417834 -0.08371329997368836 -0.9435279033108932
0.32262304181998847 -0.08671779124639639 -0.9425467614756122
0.3163662918474834 -0.07190548512144972 -0.9459080138111327
0.31270456331927543 -0.07872082417030397 -0.9465827422477391
0.3091542787704168 -0.0724715044844991 -0.948246546503438
0.3165952716638393 -0.08196345936002815 -0.9450129233454095
0.3144990281030431 -0.08064322186281264 -0.9458261109156516
0.31455122242771494 -0.08457324670777783 -0.9454654379777907
0.3165049470106691 -0.08607398259731913 -0.9446776635644616
0.31238114432655417 -0.08190036468159281 -0.9464197540913095
0.31880663773523116 -0.06937198023501068 -0.9452776608458652
0.31302382749484003 -0.050329440580058615 -0.9484107922368762
0.3086814130471238 -0.04563414520484128 -0.9500701605832352
0.3018513101081434 -0.048152673573710045 -0.9521381762190303
0.29845835370642804 -0.04644715352681107 -0.9532918089609842
0.2922339678794108 -0.007447947655776227 -0.9563178530662139
0.2950620144567447 -0.0228814657803858 -0.9552040861242528
0.29118388825083763 -0.022843989752071695 -0.9563943200141514
0.28303034530871735 -0.022330175261017694 -0.9588509722095715
0.28789565435009074 -0.004738512071534053 -0.9576500606743995
0.2858080789959361 -0.006437303312054119 -0.958265257173984
0.2886508394486131 -0.019893243652438098 -0.9572277428818055
0.28593355031211415 -0.01426248491336851 -0.958143301562979
0.27869410237342473 -0.011195185469317614 -0.9603146698476384
0.2770527194294952 -0.007330282878329894 -0.9608267573343517
0.2762724728707978 -0.009341385931943773 -0.9610339532205535
0.2728916596549593 -0.004371652077133607 -0.9620348386357318
0.2696651928517924 -0.0035595400672425296 -0.962947565259249
0.27231650415881975 -0.011854683553975431 -0.9621347036878748
0.2846336682394298 -0.0201962836412661 -0.9584235937369489
0.2784752169463834 -0.020656025970706777 -0.9602212672804964
0.27421801195843387 -0.020052966710998536 -0.961458454871375
0.27881036854979513 -0.015486998185608534 -0.9602212928676006
0.2759974985430411 -0.023165166394855 -0.9608791577841008
0.2746685968925805 -0.0137438893444918 -0.9614407248430594
0.27024017846290427 -0.013901961118791299 -0.9626925684876712
0.2914658386436035 -0.03224712348659924 -0.9560375452515559
0.2913505180610476 -0.026890763901543283 -0.956238339768047
0.2869183700109321 -0.02413830609140585 -0.9576508712100186
0.29497993003250605 -0.0379587452742892 -0.9547491683867652
0.2938397213526853 -0.04209090372776996 -0.954927522893102
0.29072306008137394 -0.03694874975974208 -0.9560935583028022
0.2866679532033024 -0.037508825567262025 -0.9572954468766652
0.28716744647991377 -0.042545413217681134 -0.9569350790395045
0.2805101961744501 -0.04597939199962828 -0.9587491462074509
0.29284589971793046 -0.025084303353738055 -0.9558305585948033
0.2847597722091327 -0.026403952261689165 -0.9582352025658238
0.2829021659279511 -0.031699706620730975 -0.9586247926657404
0.2906396039920121 -0.04112099560669904 -0.9559485782779743
0.2844502412546244 -0.039830701216277124 -0.9578630254325542
0.2867777623476894 -0.035379546424880594 -0.9573436178915187
0.2826190930885387 -0.035810324188282734 -0.9585635445307432
0.2807534706901028 -0.024793297389665 -0.9594596297395787
0.2806868687051103 -0.028907835683039722 -0.959363965746391
0.2765439491947026 -0.029331522479368904 -0.9605535414295447
0.27836651526585154 -0.027177881512993687 -0.9600903321746409
0.27826131783375957 -0.031165395161569416 -0.9599996651779847
0.2780411912548397 -0.04297845645530824 -0.9596071843448802
0.2618501683802752 -0.011380470791309102 -0.9650414365216603
0.2646373537028456 -0.01809587895130618 -0.9641782045815672
0.26974178608418964 -0.02028830607796861 -0.9627189379442985
0.2675462218024744 -0.02250300498362018 -0.9632822192721759
0.26266720589317255 -0.022968633508836593 -0.9646130731142982
0.26328468317359915 -0.020603322173639582 -0.9644981486356451
0.25833854256255223 -0.023231936482206006 -0.9657750641603577
0.2746583941359699 -0.04036767726139974 -0.960694132990917
0.25642981142594723 -0.02977741382724014 -0.9661040613918432
0.26429242788362267 -0.028975802881187857 -0.9640072175096879
0.2644087174278139 -0.03299439919716941 -0.963846149429356
0.2698701108634039 -0.024480605943095327 -0.9625854887724171
0.2627057225149395 -0.027021130133274802 -0.9644975696621657
0.2686450267155948 -0.03443649964123641 -0.9626234866828446
0.26233159889016794 -0.03073015314381601 -0.9644883565453167
0.26018857866062695 -0.02929803227222857 -0.9651132207360638
0.26049617147783244 -0.025108779637828704 -0.9651483273727882
0.2584357312374073 -0.027263641906760432 -0.9656436540721254
0.25651569159278714 -0.025017703401966105 -0.9662162358826131
0.3103781754733295 -0.06795525125552891 -0.9481811388213991
0.2958783353187745 -0.06527891509680656 -0.9529924836706608
0.29373078432004096 -0.06748839234575064 -0.9535027756862167
0.29379529887827155 -0.06349535927071064 -0.9537571293091918
0.29170727593215745 -0.06170734660174152 -0.9545150960270942
0.2896143040168107 -0.05991491213681084 -0.9552663284197223
0.29874492027419636 -0.056668960376055955 -0.9526489917804255
0.2947786807543698 -0.05701031668314408 -0.9538633828617183
0.29704469068127015 -0.04876428742136181 -0.9536175837359311
0.29738499239751104 -0.05273824401842135 -0.9532999758284828
0.29336949005524 -0.053152804537951244 -0.9545203621057431
0.3010219125420862 -0.05850883120690465 -0.9518206369060858
0.3032757026838018 -0.06380271182475183 -0.9507644619596665
0.299128900740916 -0.06394468899610914 -0.9520677378688567
0.2973804145466011 -0.06638194998417034 -0.9524485948125447
0.3007501962588269 -0.06152930722498279 -0.9517160625957151
0.29640856455203013 -0.05911838419139518 -0.9532297621826564
0.3010778365571392 -0.06593460702790742 -0.951317383384824
0.28458305091064107 -0.05501201425151302 -0.9570716615919536
0.29064853473289354 -0.05726836068520089 -0.9551145293220347
0.29130725537640456 -0.055071973394292296 -0.9550430151105891
0.2829824465095992 -0.049027515714595925 -0.9578712009817901
0.2928050281780509 -0.05945648078760417 -0.9543218232682328
0.305687530200806 -0.0693618960352973 -0.9496020541564345
0.3022033299424205 -0.07204187500214156 -0.9505172884371375
0.300135389399292 -0.06987812645192418 -0.9513336930192814
0.2982622176370761 -0.07247130174725389 -0.9517287218284798
0.30482649558272024 -0.07258397466112966 -0.9496380227292662
0.2832089680603294 -0.05707973967856347 -0.957358127206549
0.2802695503642197 -0.05535558803927131 -0.9583239212351242
0.279047399320254 -0.05754752463457476 -0.9585514234202752
0.2875896746552641 -0.06403427404279051 -0.9556106899671499
0.2853448199897738 -0.060917593716441246 -0.9564869996402473
0.2832990323122101 -0.06319131995446427 -0.956947498754962
0.2855883109191561 -0.06852178479997902 -0.9558996190365224
0.28135781415099154 -0.059522551135775884 -0.9577551076984477
0.2791391887906464 -0.06366932899819254 -0.958137531790828
0.2770334344745856 -0.060110608293302795 -0.9589782015008603
0.27563783999798397 -0.05064154989817173 -0.959926671462543
0.2756806732589074 -0.054763824814015004 -0.9596880169530385
0.2750632475277711 -0.058362027729913585 -0.9596531058558238
0.270761308828417 -0.05756693662029344 -0.9609237021999602
0.26654031793656596 -0.057567627541289676 -0.9621030231599638
0.27173644977030786 -0.06460890761479506 -0.960200495169135
0.2738591638242288 -0.06641314921365192 -0.9594740496756645
0.2718248632998235 -0.07074043111932646 -0.959743213102903
0.27010007955414694 -0.05944677475562547 -0.9609953319324697
0.278493371095632 -0.05015715608225093 -0.9591275733444072
0.27503779158402136 -0.046928419059983455 -0.9602874239961259
0.2801915577231088 -0.05309279780716866 -0.9584747496943804
0.27919652700876657 -0.06774601041525535 -0.9578412067660586
0.27708348936313587 -0.06594871746813079 -0.9585799427208237
0.2688543402447891 -0.04884910615990556 -0.9619413228253153
0.265112156251295 -0.05380818992202447 -0.9627150270485572
0.2689252900888477 -0.05295495076170347 -0.9617041964868692
0.29038543782691406 -0.07213766190551485 -0.9541868031118839
0.29170681967550877 -0.07516365986663495 -0.9535499754025759
0.2879720403069658 -0.07038263785461517 -0.9550488931411152
0.2713359158660756 -0.0770099941806207 -0.9593989168002113
0.2739443665445205 -0.07253677608357373 -0.9590062044397434
0.27657510172051497 -0.07010752569233954 -0.9584316083840227
0.29202128891102447 -0.04641898959847305 -0.9552846927630532
0.2867326012321034 -0.0508550968273281 -0.9566599053568382
0.2867012830248811 -0.046486201376163994 -0.9568915337662371
0.3136734718767106 -0.00451320531681674 -0.9495201862091079
0.32387588680673235 -0.020252774126321874 -0.9458827808377426
0.3120670087620547 -0.013230731053620022 -0.9499679625114158
0.31222750554270856 -0.009085243940441383 -0.9499639167490104
0.3115659257490759 -0.016330276098118473 -0.950084204686448
0.3240587699485455 -0.024315017503738066 -0.945724427908695
0.3221666078562744 -0.028364319856059993 -0.9462579680729166
0.31816569538445966 -0.02592274969665807 -0.9476806431117435
0.30250747452308885 -0.00990658752016768 -0.9530955289903358
0.29830684635198645 -0.006958063553675281 -0.9544446609265073
0.2984400954731381 -0.011201489688887878 -0.9543626334065757
0.29612332723126 -0.008779725122833124 -0.9551093610138348
0.3045934630335412 -0.013577034988284976 -0.9523856815377696
0.2960257415395203 -0.004704428893397979 -0.955168377143404
0.29391203574790375 -0.0028528779647449347 -0.9558282148638642
0.29189493951956863 -0.0050809854600783536 -0.9564368917339094
0.2943973403524851 -0.007485053011072362 -0.9556537971330437
0.2786860699890608 -0.0047612259847253785 -0.9603704520242045
0.274649308512041 -0.003393102281162676 -0.9615384777484297
0.2696727297670781 -0.008519314357962052 -0.9629143472307612
0.2742169477490306 -0.01760464677999464 -0.9615067040738495
0.27001407051922677 -0.018003820506157266 -0.9626880409399611
0.2763943188107517 -0.03850717370808934 -0.9602725540710594
0.2721662059564428 -0.037820316875309304 -0.9615067238281417
0.2654551026163153 -0.006882799261907277 -0.9640986544795516
0.26787469471898245 -0.011211589727971701 -0.9633885240052341
0.26131833212519584 -0.005362187772004978 -0.965237782226537
0.257330176178306 -0.0026428057892406097 -0.966319924251592
0.26581519803681924 -0.013389814190515924 -0.9639310106893492
0.26600596295958556 -0.01635363522421806 -0.9638326547097773
0.2618424361887008 -0.015773736569398265 -0.9649817240991694
0.25948917820607353 -0.017793536337362595 -0.9655820816784805
0.25473418338609466 -0.005434465956915401 -0.9669958440419394
0.2548245806965512 -0.009745240389603862 -0.9669381900424534
0.2504700988772623 -0.00581297806222399 -0.96810688400324
0.24800783367484408 -0.016521156413046675 -0.9686171409936366
0.2550915972202357 -0.015931868281638485 -0.9667856290826243
0.25067233197038485 -0.01411774256508715 -0.967969044613202
0.25312858816399886 -0.018037277954083768 -0.9672644800974074
0.2552099215946863 -0.020208690148956193 -0.9666744564547558
0.2528488709773532 -0.0024803067009973524 -0.9675026080192998
0.2442938875338659 -0.0033771921486473295 -0.9696953599387708
0.26555382546963907 -0.02668269938824742 -0.9637267244046919
0.26762034111879707 -0.02870152245628938 -0.9630968672091867
0.26558641027351343 -0.03070734313880155 -0.9635979025274936
0.35006420653640075 0.06147485572277034 -0.9347063139916756
0.35435078649490753 0.06160834141552122 -0.9330808820131667
0.3601650726691492 0.046192067833173894 -0.9317442853586612
0.363266911531813 0.04233040907543532 -0.9307229917938229
0.35220681190240777 0.03967126325912256 -0.935081040616784
0.3561734472525411 0.04582376561048376 -0.9332955898200295
0.36138788126464844 0.040361430903925535 -0.9315416008801949
0.359402841956938 0.04215357126110492 -0.932229946753059
0.35748593111226634 0.040052718619660185 -0.9330592632775104
0.3616005306280121 0.037146501207518265 -0.9315928261303755
0.3597297410095926 0.035126480334094164 -0.9323951114267546
0.35767488700659456 0.03617027022332051 -0.9331454263708266
0.35350359573255 0.04375180359481646 -0.9344094324686361
0.3319090410724582 0.055745039604298385 -0.941662826607208
0.3390507858626384 0.056786292083588825 -0.9390526511529185
0.33699270095704037 0.0586500604000684 -0.9396787163263554
0.33652512394079076 0.05661109147590167 -0.9399712896033275
0.33461356949866894 0.054494988586621655 -0.9407784305171455
0.3303101845135301 0.059711839209246276 -0.9419817823423587
0.35038692379214464 0.04171011470615682 -0.9356758359424899
0.34640867752053284 0.04449220171015861 -0.9370279996486007
0.33627451331749436 0.048544688527282644 -0.9405120227348885
0.3342142460754678 0.050405181002740745 -0.9411483174549523
0.34325267281176713 0.03783327769306755 -0.9384808179747615
0.3437555073074687 0.046808410108059174 -0.9378918508756438
0.33426423789554377 0.045904196811384405 -0.9413608362255216
0.32827495311234545 0.04549458305593448 -0.9434859819158175
0.34778357863382703 0.06335924786360997 -0.9354315518213006
0.3458990521371398 0.06126592582278152 -0.9362693693930747
0.35591771480163414 0.05842174237674571 -0.9326893803984518
0.354047826589838 0.05633118951886897 -0.9335292890822448
0.3499767129986192 0.057553521780989 -0.9349887124929839
0.3522474343613919 0.05226162035579116 -0.9344466105795474
0.34794028858629716 0.05940819230643871 -0.9356325252284498
0.3418812474407757 0.06300981321013446 -0.9376283784568187
0.34652782925054865 0.05524358724624311 -0.9364115599580504
0.34139336628775097 0.056822899152866806 -0.9382013257220332
0.34400896856871 0.05916739089011859 -0.9371003411585913
0.3462008626641573 0.06729436487354912 -0.9357437849897049
0.3444083386231963 0.06538449833213926 -0.9365403160914454
0.3442360406816962 0.05322361058808029 -0.9373733490833618
0.3421892335431754 0.0550803129098641 -0.9380152917606865
0.3503468742537818 0.04767254580110418 -0.9354060060088595
0.3464226731419995 0.047407686712173894 -0.9368798443630602
0.34233743968927893 0.05111188137775787 -0.9381858307227922
0.337037331553106 0.054975891398042875 -0.939884827255208
0.33288244523070937 0.05804375100943012 -0.9411802168692132
0.32871546109247407 0.061695761674312136 -0.9424116821380074
0.3236366095387857 0.06467989920636033 -0.9439681433209994
0.3272053774250027 0.0656984950569156 -0.9426666158995014
0.32138740684911116 0.06974442503628628 -0.9443759049738414
0.33927420376231016 0.05082466407309468 -0.9393135089964946
0.35895933344098635 0.026418028343141057 -0.932979252027645
0.3545358730310226 0.03391876683515272 -0.934427007310102
0.3619371949819898 0.031186614055105505 -0.9316806652455267
0.3579727009066566 0.03280468887507006 -0.9331556128499701
0.33781964382019775 0.03186769448567466 -0.9406712168964045
0.3281613141606077 0.05527416932407325 -0.9430031379024764
0.3258644956525691 0.06136750066787174 -0.9434226838140345
0.3259261059273516 0.057141292240194146 -0.9436668088876251
0.3260494225579083 0.06354331234606786 -0.94321472714634
0.3297352186931808 0.05741310708965919 -0.9423260691966829
0.3224390281626893 0.06255811620197146 -0.9445208071899533
0.32430147598534814 0.05934261465073187 -0.9440905712695893
0.3184964075126269 0.062179563438111055 -0.9458825192867224
0.3145662897139766 0.062102758209891765 -0.9472018247439699
0.31391499574872067 0.05794075089964466 -0.947681510228656
0.31191182561886854 0.055858206325145536 -0.9484676451124952
0.3305052760978027 0.053594041554348985 -0.9422812431442037
0.3264268122601446 0.05113957322775349 -0.9438380582958941
0.32429772139045787 0.05316883177864152 -0.9444596673380243
0.3312377737646052 0.04236869909236051 -0.9425955816619815
0.3336182500557861 0.03779413661683427 -0.9419503524427937
0.327358350359167 0.04261412960913267 -0.9439388467521511
0.3274713047372226 0.038698980261070964 -0.9440682885789854
0.32532508672543076 0.04055149822221571 -0.9447323239622029
0.32269046952701247 0.0404271521838751 -0.9456407913382006
0.3231160208853186 0.04221915620770696 -0.9454171459712097
0.3171273115316094 0.04405282216735007 -0.9473592861949607
0.32447762279262415 0.045017505835823056 -0.9448215156711712
0.32438173211648835 0.048967738115760995 -0.9446579552901321
0.3223212080357876 0.0469984672226133 -0.9454629463543643
0.316529632937235 0.04694010159932987 -0.9474205076598584
0.31618479365144114 0.05285180357622224 -0.9472242939886709
0.30617632588131183 0.06487621473774029 -0.9497616196873421
0.3038999059200173 0.06676068985570818 -0.9503619612925354
0.31161223184766434 0.061938217393432526 -0.9481885224938348
